ply
format ascii 1.0
comment PCL generated
element vertex 1456
property float x
property float y
property float z
property float nx
property float ny
property float nz
property float curvature
element camera 0
property float view_px
property float view_py
property float view_pz
property float x_axisx
property float x_axisy
property float x_axisz
property float y_axisx
property float y_axisy
property float y_axisz
property float z_axisx
property float z_axisy
property float z_axisz
property float focal
property float scalex
property float scaley
property float centerx
property float centery
property int viewportx
property int viewporty
property float k1
property float k2
end_header
-27.832031 19.741968 45.981567 0 0 0 0
27.832031 19.741968 46.256363 0 0 0 0
28.808594 19.741968 47.3517 0 0 0 0
29.785156 19.741968 47.56691 0 0 0 0
30.761719 19.741968 47.457687 0 0 0 0
31.738281 19.741968 46.837875 0 0 0 0
59.547791 19.741968 48 0 0 0 0
-59.604568 20.718531 48 0 0 0 0
-31.738281 20.718531 47.097244 0 0 0 0
-30.761719 20.718531 47.664124 0 0 0 0
-29.785156 20.718531 47.762375 0 0 0 0
-28.808594 20.718531 47.430298 0 0 0 0
-27.832031 20.718531 45.981812 0 0 0 0
27.832031 20.718531 46.213013 0 0 0 0
28.808594 20.718531 47.346725 0 0 0 0
29.785156 20.718531 47.567825 0 0 0 0
30.761719 20.718531 47.456253 0 0 0 0
31.738281 20.718531 46.836395 0 0 0 0
59.562042 20.718531 48 0 0 0 0
-59.603714 21.695093 48 0 0 0 0
-31.738281 21.695093 47.063248 0 0 0 0
-30.761719 21.695093 47.65509 0 0 0 0
-29.785156 21.695093 47.759338 0 0 0 0
-28.808594 21.695093 47.438324 0 0 0 0
-27.832031 21.695093 45.969971 0 0 0 0
27.832031 21.695093 46.158951 0 0 0 0
28.808594 21.695093 47.326279 0 0 0 0
29.785156 21.695093 47.553452 0 0 0 0
30.761719 21.695093 47.44548 0 0 0 0
31.738281 21.695093 46.831009 0 0 0 0
59.558899 21.695093 48 0 0 0 0
-59.609695 22.671656 48 0 0 0 0
-31.738281 22.671656 47.056 0 0 0 0
-30.761719 22.671656 47.640396 0 0 0 0
-29.785156 22.671656 47.738281 0 0 0 0
-28.808594 22.671656 47.423584 0 0 0 0
-27.832031 22.671656 46.022278 0 0 0 0
27.832031 22.671656 46.21106 0 0 0 0
28.808594 22.671656 47.364029 0 0 0 0
29.785156 22.671656 47.586426 0 0 0 0
30.761719 22.671656 47.484283 0 0 0 0
31.738281 22.671656 46.907196 0 0 0 0
59.568787 22.671656 48 0 0 0 0
-59.610413 23.648218 48 0 0 0 0
-31.738281 23.648218 47.352371 0 0 0 0
-30.761719 23.648218 47.908447 0 0 0 0
-30.110672 23.648218 48 0 0 0 0
-29.785156 23.511713 48 0.28683594 -0.66394895 0.64175189 0.96692735
-29.642517 23.648218 48 0.29616252 -0.6711961 0.6316812 0.96811032
-28.808594 23.648218 47.733643 0 0 0 0
-27.832031 23.648218 46.71521 0 0 0 0
27.832031 23.648218 47.115158 0 0 0 0
28.808594 23.648218 47.857666 0 0 0 0
29.337555 23.648218 48 0 0 0 0
29.785156 23.45051 48 0 0 0 0
30.705902 23.648218 48 -0.13831773 0.3880454 0.21664694 0.46545348
30.761719 23.648218 47.992676 -0.13761504 0.38858134 0.21703944 0.46587494
31.738281 23.648218 47.558304 0 0 0 0
32.714844 23.648218 45.275513 0.62588096 -0.7487216 0.19254839 0.99467874
59.544861 23.648218 48 0 0 0 0
-59.523117 24.624781 48 0 0 0 0
-34.667969 24.624781 46.602417 0 0 0 0
-34.133621 24.624781 48 0 0 0 0
-33.691406 24.385004 48 0 0 0 0
-32.714844 24.138422 48 0 0 0 0
-31.738281 23.931681 48 0 0 0 0
-30.761719 23.698694 48 0 0 0 0
-28.808594 23.790949 48 0 0 0 0
-27.832031 24.010523 48 0 0 0 0
-26.855469 24.190516 48 0 0 0 0
-25.878906 24.58024 48 -0.11394003 -0.051840961 0.0025885776 0.1252059
-25.808075 24.624781 48 -0.11786436 -0.056391716 -0.011562258 0.13117057
24.902344 24.624781 46.652542 0 0 0 0
25.360382 24.624781 48 0 0 0 0
25.878906 24.318003 48 0 0 0 0
26.855469 24.011393 48 0 0 0 0
27.832031 23.870996 48 0 0 0 0
28.808594 23.708582 48 0 0 0 0
30.761719 23.651407 48 -0.13761504 0.38858134 0.21703944 0.46587494
31.738281 23.80282 48 0 0 0 0
32.714844 23.939386 48 0 0 0 0
33.691406 24.14625 48 0 0 0 0
34.667969 24.624781 47.690552 0 0 0 0
34.531189 24.624781 48 0 0 0 0
59.274506 24.624781 48 0 0 0 0
-59.082031 25.18548 48 0 0 0 0
-58.105469 25.317316 48 0 0 0 0
-57.128906 25.291742 48 0 0 0 0
-56.152344 25.269571 48 0 0 0 0
-55.175781 25.248438 48 0 0 0 0
-54.199219 25.223017 48 0 0 0 0
-53.222656 25.206598 48 0 0 0 0
-52.246094 25.188105 48 0 0 0 0
-51.269531 25.175714 48 0 0 0 0
-50.292969 25.163446 48 0 0 0 0
-49.316406 25.152155 48 0 0 0 0
-48.339844 25.140192 48 0 0 0 0
-47.363281 25.133036 48 0 0 0 0
-46.386719 25.12211 48 0 0 0 0
-45.410156 25.114878 48 0 0 0 0
-44.433594 25.108622 48 0 0 0 0
-43.457031 25.099817 48 0 0 0 0
-42.480469 25.094385 48 0 0 0 0
-41.503906 25.087366 48 0 0 0 0
-40.527344 25.077814 48 0 0 0 0
-39.550781 25.073465 48 0 0 0 0
-38.574219 25.073328 48 0 0 0 0
-37.597656 25.067225 48 0 0 0 0
-36.621094 25.066263 48 0 0 0 0
-35.644531 25.027719 48 0 0 0 0
-34.667969 24.822474 48 0 0 0 0
-24.902344 24.926172 48 0 0 0 0
-23.925781 25.00979 48 0 0 0 0
-22.949219 25.009241 48 0 0 0 0
-21.972656 25.006769 48 0 0 0 0
-20.996094 24.997568 48 0 0 0 0
-20.019531 24.993952 48 0 0 0 0
-19.042969 24.988047 48 0 0 0 0
-18.066406 24.979181 48 0 0 0 0
-17.089844 24.978037 48 0 0 0 0
-16.113281 24.974222 48 0 0 0 0
-15.136719 24.973001 48 0 0 0 0
-14.160156 24.967264 48 0 0 0 0
-13.183594 24.964655 48 0 0 0 0
-12.207031 24.95846 48 0 0 0 0
-11.230469 24.958384 48 0 0 0 0
-10.253906 24.956903 48 0 0 0 0
-9.2773438 24.951319 48 0 0 0 0
-8.3007812 24.948298 48 0 0 0 0
-7.3242188 24.948801 48 0 0 0 0
-6.3476562 24.945292 48 0 0 0 0
-5.3710938 24.941828 48 0 0 0 0
-4.3945312 24.938883 48 0 0 0 0
-3.4179688 24.934427 48 0 0 0 0
-2.4414062 24.933558 48 0 0 0 0
-1.4648438 24.930506 48 0 0 0 0
-0.48828125 24.927744 48 0 0 0 0
0.48828125 24.925257 48 0 0 0 0
1.4648438 24.923456 48 0 0 0 0
2.4414062 24.919504 48 0 0 0 0
3.4179688 24.920084 48 0 0 0 0
4.3945312 24.91337 48 0 0 0 0
5.3710938 24.912683 48 0 0 0 0
6.3476562 24.909372 48 0 0 0 0
7.3242188 24.905863 48 0 0 0 0
8.3007812 24.903803 48 0 0 0 0
9.2773438 24.900705 48 0 0 0 0
10.253906 24.898279 48 0 0 0 0
11.230469 24.897638 48 0 0 0 0
12.207031 24.893335 48 0 0 0 0
13.183594 24.890985 48 0 0 0 0
14.160156 24.889185 48 0 0 0 0
15.136719 24.890863 48 0 0 0 0
16.113281 24.889826 48 0 0 0 0
17.089844 24.883783 48 0 0 0 0
18.066406 24.878855 48 0 0 0 0
19.042969 24.87533 48 0 0 0 0
20.019531 24.876017 48 0 0 0 0
20.996094 24.876062 48 0 0 0 0
21.972656 24.877115 48 0 0 0 0
22.949219 24.877481 48 0 0 0 0
23.925781 24.868555 48 0 0 0 0
24.902344 24.784037 48 0 0 0 0
34.667969 24.679117 48 0 0 0 0
35.644531 24.843042 48 0 0 0 0
36.621094 24.86442 48 0 0 0 0
37.597656 24.858545 48 0 0 0 0
38.574219 24.854731 48 0 0 0 0
39.550781 24.851954 48 0 0 0 0
40.527344 24.848871 48 0 0 0 0
41.503906 24.847803 48 0 0 0 0
42.480469 24.846979 48 0 0 0 0
43.457031 24.848032 48 0 0 0 0
44.433594 24.843332 48 0 0 0 0
45.410156 24.846354 48 0 0 0 0
46.386719 24.848459 48 0 0 0 0
47.363281 24.849512 48 0 0 0 0
48.339844 24.847834 48 0 0 0 0
49.316406 24.845606 48 0 0 0 0
50.292969 24.848154 48 0 0 0 0
51.269531 24.85264 48 0 0 0 0
52.246094 24.857096 48 0 0 0 0
53.222656 24.858393 48 0 0 0 0
54.199219 24.860788 48 0 0 0 0
55.175781 24.86825 48 0 0 0 0
56.152344 24.880579 48 0 0 0 0
57.128906 24.890268 48 0 0 0 0
58.105469 24.898005 48 0 0 0 0
59.082031 24.784372 48 0 0 0 0
-59.082031 -24.704916 51 0 0 0 0
-59.563934 -24.203344 51 0 0 0 0
-58.105469 -24.784338 51 0 0 0 0
-57.128906 -24.774313 51 0 0 0 0
-56.152344 -24.749716 51 0 0 0 0
-55.175781 -24.735723 51 0 0 0 0
-54.199219 -24.740454 51 0 0 0 0
-53.222656 -24.740454 51 0 0 0 0
-52.246094 -24.734518 51 0 0 0 0
-51.269531 -24.732458 51 0 0 0 0
-50.292969 -24.730169 51 0 0 0 0
-49.316406 -24.730169 51 0 0 0 0
-48.339844 -24.732458 51 0 0 0 0
-47.363281 -24.713675 51 0 0 0 0
-46.386719 -24.712042 51 0 0 0 0
-45.410156 -24.719976 51 0 0 0 0
-44.433594 -24.728201 51 0 0 0 0
-43.457031 -24.721457 51 0 0 0 0
-42.480469 -24.744116 51 0 0 0 0
-41.503906 -24.727057 51 0 0 0 0
-40.527344 -24.713263 51 0 0 0 0
-39.550781 -24.711645 51 0 0 0 0
-38.574219 -24.708044 51 0 0 0 0
-37.597656 -24.698996 51 0 0 0 0
-36.621094 -24.708151 51 0 0 0 0
-35.644531 -24.705496 51 0 0 0 0
-34.667969 -24.719259 51 0 0 0 0
-33.691406 -24.736578 51 0 0 0 0
-32.714844 -24.734625 51 0 0 0 0
-31.738281 -24.727575 51 0 0 0 0
-30.761719 -24.729193 51 0 0 0 0
-29.785156 -24.724173 51 0 0 0 0
-28.808594 -24.734152 51 0 0 0 0
-27.832031 -24.726919 51 0 0 0 0
-26.855469 -24.716711 51 0 0 0 0
-25.878906 -24.730566 51 0 0 0 0
-24.902344 -24.7479 51 0 0 0 0
-23.925781 -24.728277 51 0 0 0 0
-22.949219 -24.72785 51 0 0 0 0
-21.972656 -24.738409 51 0 0 0 0
-20.996094 -24.758001 51 0 0 0 0
-20.019531 -24.753927 51 0 0 0 0
-19.042969 -24.767645 51 0 0 0 0
-18.066406 -24.777975 51 0 0 0 0
-17.089844 -24.791677 51 0 0 0 0
-16.113281 -24.790487 51 0 0 0 0
-15.136719 -24.795828 51 0 0 0 0
-14.160156 -24.791632 51 0 0 0 0
-13.183594 -24.795202 51 0 0 0 0
-12.207031 -24.80361 51 0 0 0 0
-11.230469 -24.794577 51 0 0 0 0
-10.253906 -24.803198 51 0 0 0 0
-9.2773438 -24.823996 51 0 0 0 0
-8.3007812 -24.830496 51 0 0 0 0
-7.3242188 -24.838263 51 0 0 0 0
-6.3476562 -24.827993 51 0 0 0 0
-5.3710938 -24.820272 51 0 0 0 0
-4.3945312 -24.832373 51 0 0 0 0
-3.4179688 -24.853399 51 0 0 0 0
-2.4414062 -24.855398 51 0 0 0 0
-1.4648438 -24.84551 51 0 0 0 0
-0.48828125 -24.8514 51 0 0 0 0
0.48828125 -24.854391 51 0 0 0 0
1.4648438 -24.843664 51 0 0 0 0
2.4414062 -24.860312 51 0 0 0 0
3.4179688 -24.858313 51 0 0 0 0
4.3945312 -24.846594 51 0 0 0 0
5.3710938 -24.846594 51 0 0 0 0
6.3476562 -24.864218 51 0 0 0 0
7.3242188 -24.856329 51 0 0 0 0
8.3007812 -24.847647 51 0 0 0 0
9.2773438 -24.83193 51 0 0 0 0
10.253906 -24.82012 51 0 0 0 0
11.230469 -24.849554 51 0 0 0 0
12.207031 -24.86611 51 0 0 0 0
13.183594 -24.867987 51 0 0 0 0
14.160156 -24.858175 51 0 0 0 0
15.136719 -24.862875 51 0 0 0 0
16.113281 -24.877432 51 0 0 0 0
17.089844 -24.867636 51 0 0 0 0
18.066406 -24.855322 51 0 0 0 0
19.042969 -24.877432 51 0 0 0 0
20.019531 -24.885794 51 0 0 0 0
20.996094 -24.900473 51 0 0 0 0
21.972656 -24.897985 51 0 0 0 0
22.949219 -24.907171 51 0 0 0 0
23.925781 -24.908804 51 0 0 0 0
24.902344 -24.904165 51 0 0 0 0
25.878906 -24.896475 51 0 0 0 0
26.855469 -24.898855 51 0 0 0 0
27.832031 -24.900076 51 0 0 0 0
28.808594 -24.912512 51 0 0 0 0
29.785156 -24.897223 51 0 0 0 0
30.761719 -24.895193 51 0 0 0 0
31.738281 -24.883307 51 0 0 0 0
32.714844 -24.879644 51 0 0 0 0
33.691406 -24.882208 51 0 0 0 0
34.667969 -24.892843 51 0 0 0 0
35.644531 -24.905783 51 0 0 0 0
36.621094 -24.912054 51 0 0 0 0
37.597656 -24.918371 51 0 0 0 0
38.574219 -24.900885 51 0 0 0 0
39.550781 -24.887747 51 0 0 0 0
40.527344 -24.907568 51 0 0 0 0
41.503906 -24.913321 51 0 0 0 0
42.480469 -24.925268 51 0 0 0 0
43.457031 -24.918371 51 0 0 0 0
44.433594 -24.928152 51 0 0 0 0
45.410156 -24.95046 51 0 0 0 0
46.386719 -24.95606 51 0 0 0 0
47.363281 -24.942663 51 0 0 0 0
48.339844 -24.95046 51 0 0 0 0
49.316406 -24.959753 51 0 0 0 0
50.292969 -24.958212 51 0 0 0 0
51.269531 -24.963812 51 0 0 0 0
52.246094 -24.97576 51 0 0 0 0
53.222656 -24.988485 51 0 0 0 0
54.199219 -25.008871 51 0 0 0 0
55.175781 -25.018545 51 0 0 0 0
56.152344 -25.048391 51 0 0 0 0
57.128906 -25.076071 51 0 0 0 0
58.105469 -25.080542 51 0 0 0 0
59.082031 -24.841864 51 0 0 0 0
59.409302 -24.203344 51 0 0 0 0
-59.930328 -23.226782 51 0 0 0 0
59.513275 -23.226782 51 0 0 0 0
-59.93306 -22.250219 51 0 0 0 0
59.508179 -22.250219 51 0 0 0 0
-59.888123 -21.273657 51 0 0 0 0
59.496033 -21.273657 51 0 0 0 0
-59.866211 -20.297094 51 0 0 0 0
59.486877 -20.297094 51 0 0 0 0
-59.847107 -19.320532 51 0 0 0 0
59.475281 -19.320532 51 0 0 0 0
-59.83403 -18.343969 51 0 0 0 0
59.475281 -18.343969 51 0 0 0 0
-59.807297 -17.367407 51 0 0 0 0
59.471802 -17.367407 51 0 0 0 0
-59.790604 -16.390844 51 0 0 0 0
59.473816 -16.390844 51 0 0 0 0
-59.795212 -15.414281 51 0 0 0 0
59.467163 -15.414281 51 0 0 0 0
-59.779007 -14.437718 51 0 0 0 0
59.469452 -14.437718 51 0 0 0 0
-59.769012 -13.461156 51 0 0 0 0
59.467712 -13.461156 51 0 0 0 0
-59.75827 -12.484593 51 0 0 0 0
59.462463 -12.484593 51 0 0 0 0
-59.748856 -11.508031 51 0 0 0 0
59.466248 -11.508031 51 0 0 0 0
-59.745392 -10.531468 51 0 0 0 0
59.464783 -10.531468 51 0 0 0 0
-59.726028 -9.5549059 51 0 0 0 0
59.467438 -9.5549059 51 0 0 0 0
-59.722839 -8.5783434 51 0 0 0 0
59.457184 -8.5783434 51 0 0 0 0
-59.712814 -7.6017814 51 0 0 0 0
59.473541 -7.6017814 51 0 0 0 0
-59.706573 -6.6252189 51 0 0 0 0
59.472656 -6.6252189 51 0 0 0 0
-59.700089 -5.6486564 51 0 0 0 0
59.463257 -5.6486564 51 0 0 0 0
-59.68959 -4.6720939 51 0 0 0 0
59.469452 -4.6720939 51 0 0 0 0
-59.684708 -3.6955314 51 0 0 0 0
59.469147 -3.6955314 51 0 0 0 0
-59.681992 -2.7189689 51 0 0 0 0
59.466522 -2.7189689 51 0 0 0 0
-59.689377 -1.7424062 51 0 0 0 0
59.479309 -1.7424062 51 0 0 0 0
-59.665436 -0.76584375 51 0 0 0 0
59.478516 -0.76584375 51 0 0 0 0
-59.658279 0.21071875 51 0 0 0 0
59.474121 0.21071875 51 0 0 0 0
-59.645844 1.1872813 51 0 0 0 0
59.475861 1.1872813 51 0 0 0 0
-59.637573 2.1638436 51 0 0 0 0
59.476166 2.1638436 51 0 0 0 0
-59.636108 3.1404061 51 0 0 0 0
59.478516 3.1404061 51 0 0 0 0
-59.618454 4.1169686 51 0 0 0 0
59.481995 4.1169686 51 0 0 0 0
-59.618881 5.0935311 51 0 0 0 0
59.480865 5.0935311 51 0 0 0 0
-59.616699 6.0700936 51 0 0 0 0
59.490143 6.0700936 51 0 0 0 0
-59.613464 7.0466561 51 0 0 0 0
59.482666 7.0466561 51 0 0 0 0
-59.616379 8.0232191 51 0 0 0 0
59.490265 8.0232191 51 0 0 0 0
-59.602753 8.9997816 51 0 0 0 0
59.497009 8.9997816 51 0 0 0 0
-59.611206 9.9763441 51 0 0 0 0
59.505402 9.9763441 51 0 0 0 0
-59.616058 10.952907 51 0 0 0 0
59.51178 10.952907 51 0 0 0 0
-59.611694 11.929469 51 0 0 0 0
59.520508 11.929469 51 0 0 0 0
-59.609772 12.906032 51 0 0 0 0
59.527954 12.906032 51 0 0 0 0
-59.608124 13.882594 51 0 0 0 0
59.526459 13.882594 51 0 0 0 0
-59.606995 14.859157 51 0 0 0 0
59.529297 14.859157 51 0 0 0 0
-59.604263 15.835719 51 0 0 0 0
59.531494 15.835719 51 0 0 0 0
-59.59761 16.812281 51 0 0 0 0
59.535156 16.812281 51 0 0 0 0
-59.600632 17.788843 51 0 0 0 0
59.544769 17.788843 51 0 0 0 0
-59.603928 18.765406 51 0 0 0 0
59.552277 18.765406 51 0 0 0 0
-59.596512 19.741968 51 0 0 0 0
59.552887 19.741968 51 0 0 0 0
-59.59726 20.718531 51 0 0 0 0
59.559692 20.718531 51 0 0 0 0
-59.600433 21.695093 51 0 0 0 0
59.567291 21.695093 51 0 0 0 0
-59.601715 22.671656 51 0 0 0 0
59.572571 22.671656 51 0 0 0 0
-59.598389 23.648218 51 0 0 0 0
-29.785156 23.648218 48.118546 0.29294184 -0.65825725 0.64799285 0.96902645
29.785156 23.648218 48.296402 0 0 0 0
59.556458 23.648218 51 0 0 0 0
-59.498001 24.624781 51 0 0 0 0
-33.691406 24.624781 48.883438 0 0 0 0
-32.714844 24.624781 49.664474 0 0 0 0
-31.738281 24.624781 50.078613 0 0 0 0
-30.761719 24.624781 50.315536 0 0 0 0
-29.785156 24.624781 50.369431 0 0 0 0
-28.808594 24.624781 50.246201 0 0 0 0
-27.832031 24.624781 49.934357 0 0 0 0
-26.855469 24.624781 49.481934 0 0 0 0
-25.878906 24.624781 48.175735 -0.12332933 -0.056558102 -0.0051909164 0.13577881
25.878906 24.624781 49.304352 0 0 0 0
26.855469 24.624781 50.143723 0 0 0 0
27.832031 24.624781 50.441513 0 0 0 0
28.808594 24.624781 50.638931 0 0 0 0
29.785156 24.624781 50.735168 0 0 0 0
30.761719 24.624781 50.703537 0 0 0 0
31.738281 24.624781 50.545029 0 0 0 0
32.714844 24.624781 50.310669 0 0 0 0
33.691406 24.624781 49.806534 0 0 0 0
59.259735 24.624781 51 0 0 0 0
-59.082031 25.146708 51 0 0 0 0
-58.105469 25.285959 51 0 0 0 0
-57.128906 25.267206 51 0 0 0 0
-56.152344 25.242044 51 0 0 0 0
-55.175781 25.219934 51 0 0 0 0
-54.199219 25.200846 51 0 0 0 0
-53.222656 25.183084 51 0 0 0 0
-52.246094 25.165705 51 0 0 0 0
-51.269531 25.150629 51 0 0 0 0
-50.292969 25.137918 51 0 0 0 0
-49.316406 25.127268 51 0 0 0 0
-48.339844 25.116617 51 0 0 0 0
-47.363281 25.106836 51 0 0 0 0
-46.386719 25.097193 51 0 0 0 0
-45.410156 25.090235 51 0 0 0 0
-44.433594 25.084436 51 0 0 0 0
-43.457031 25.077509 51 0 0 0 0
-42.480469 25.069773 51 0 0 0 0
-41.503906 25.062845 51 0 0 0 0
-40.527344 25.056528 51 0 0 0 0
-39.550781 25.050638 51 0 0 0 0
-38.574219 25.044764 51 0 0 0 0
-37.597656 25.039438 51 0 0 0 0
-36.621094 25.036325 51 0 0 0 0
-35.644531 25.03097 51 0 0 0 0
-34.667969 25.019129 51 0 0 0 0
-33.691406 25.009378 51 0 0 0 0
-32.714844 24.965403 51 0 0 0 0
-31.738281 24.904276 51 0 0 0 0
-30.761719 24.858561 51 0 0 0 0
-29.785156 24.842157 51 0 0 0 0
-28.808594 24.868921 51 0 0 0 0
-27.832031 24.923761 51 0 0 0 0
-26.855469 24.964884 51 0 0 0 0
-25.878906 24.98736 51 0 0 0 0
-24.902344 24.983545 51 0 0 0 0
-23.925781 24.981195 51 0 0 0 0
-22.949219 24.974573 51 0 0 0 0
-21.972656 24.969828 51 0 0 0 0
-20.996094 24.969828 51 0 0 0 0
-20.019531 24.965479 51 0 0 0 0
-19.042969 24.959696 51 0 0 0 0
-18.066406 24.95553 51 0 0 0 0
-17.089844 24.955469 51 0 0 0 0
-16.113281 24.950296 51 0 0 0 0
-15.136719 24.948252 51 0 0 0 0
-14.160156 24.945185 51 0 0 0 0
-13.183594 24.945688 51 0 0 0 0
-12.207031 24.941095 51 0 0 0 0
-11.230469 24.939157 51 0 0 0 0
-10.253906 24.935648 51 0 0 0 0
-9.2773438 24.93516 51 0 0 0 0
-8.3007812 24.931177 51 0 0 0 0
-7.3242188 24.924799 51 0 0 0 0
-6.3476562 24.922709 51 0 0 0 0
-5.3710938 24.922586 51 0 0 0 0
-4.3945312 24.917139 51 0 0 0 0
-3.4179688 24.913248 51 0 0 0 0
-2.4414062 24.914469 51 0 0 0 0
-1.4648438 24.913416 51 0 0 0 0
-0.48828125 24.907633 51 0 0 0 0
0.48828125 24.905283 51 0 0 0 0
1.4648438 24.902536 51 0 0 0 0
2.4414062 24.900217 51 0 0 0 0
3.4179688 24.89686 51 0 0 0 0
4.3945312 24.893122 51 0 0 0 0
5.3710938 24.891245 51 0 0 0 0
6.3476562 24.890329 51 0 0 0 0
7.3242188 24.887033 51 0 0 0 0
8.3007812 24.886927 51 0 0 0 0
9.2773438 24.88154 51 0 0 0 0
10.253906 24.880411 51 0 0 0 0
11.230469 24.879725 51 0 0 0 0
12.207031 24.874338 51 0 0 0 0
13.183594 24.873224 51 0 0 0 0
14.160156 24.869272 51 0 0 0 0
15.136719 24.863138 51 0 0 0 0
16.113281 24.865335 51 0 0 0 0
17.089844 24.863596 51 0 0 0 0
18.066406 24.862162 51 0 0 0 0
19.042969 24.860743 51 0 0 0 0
20.019531 24.85589 51 0 0 0 0
20.996094 24.854471 51 0 0 0 0
21.972656 24.850367 51 0 0 0 0
22.949219 24.848719 51 0 0 0 0
23.925781 24.847437 51 0 0 0 0
24.902344 24.846018 51 0 0 0 0
25.878906 24.843668 51 0 0 0 0
26.855469 24.824335 51 0 0 0 0
27.832031 24.787058 51 0 0 0 0
28.808594 24.743372 51 0 0 0 0
29.785156 24.715448 51 0 0 0 0
30.761719 24.723764 51 0 0 0 0
31.738281 24.762857 51 0 0 0 0
32.714844 24.801432 51 0 0 0 0
33.691406 24.82789 51 0 0 0 0
34.667969 24.833948 51 0 0 0 0
35.644531 24.831171 51 0 0 0 0
36.621094 24.827021 51 0 0 0 0
37.597656 24.828699 51 0 0 0 0
38.574219 24.825922 51 0 0 0 0
39.550781 24.826441 51 0 0 0 0
40.527344 24.822031 51 0 0 0 0
41.503906 24.820932 51 0 0 0 0
42.480469 24.825602 51 0 0 0 0
43.457031 24.821207 51 0 0 0 0
44.433594 24.822031 51 0 0 0 0
45.410156 24.82255 51 0 0 0 0
46.386719 24.824442 51 0 0 0 0
47.363281 24.826075 51 0 0 0 0
48.339844 24.828791 51 0 0 0 0
49.316406 24.832392 51 0 0 0 0
50.292969 24.832392 51 0 0 0 0
51.269531 24.831598 51 0 0 0 0
52.246094 24.837259 51 0 0 0 0
53.222656 24.841333 51 0 0 0 0
54.199219 24.845255 51 0 0 0 0
55.175781 24.857874 51 0 0 0 0
56.152344 24.866907 51 0 0 0 0
57.128906 24.875315 51 0 0 0 0
58.105469 24.883478 51 0 0 0 0
59.082031 24.771997 51 0 0 0 0
-59.082031 -24.73049 54 0 0 0 0
-59.571884 -24.203344 54 0 0 0 0
-58.105469 -24.815664 54 0 0 0 0
-57.128906 -24.801168 54 0 0 0 0
-56.152344 -24.780401 54 0 0 0 0
-55.175781 -24.755041 54 0 0 0 0
-54.199219 -24.749838 54 0 0 0 0
-53.222656 -24.755743 54 0 0 0 0
-52.246094 -24.752874 54 0 0 0 0
-51.269531 -24.767126 54 0 0 0 0
-50.292969 -24.769949 54 0 0 0 0
-49.316406 -24.761374 54 0 0 0 0
-48.339844 -24.752462 54 0 0 0 0
-47.363281 -24.725027 54 0 0 0 0
-46.386719 -24.716833 54 0 0 0 0
-45.410156 -24.725836 54 0 0 0 0
-44.433594 -24.734289 54 0 0 0 0
-43.457031 -24.728704 54 0 0 0 0
-42.480469 -24.727499 54 0 0 0 0
-41.503906 -24.719259 54 0 0 0 0
-40.527344 -24.725622 54 0 0 0 0
-39.550781 -24.732061 54 0 0 0 0
-38.574219 -24.734625 54 0 0 0 0
-37.597656 -24.73081 54 0 0 0 0
-36.621094 -24.732946 54 0 0 0 0
-35.644531 -24.73435 54 0 0 0 0
-34.667969 -24.756521 54 0 0 0 0
-33.691406 -24.76856 54 0 0 0 0
-32.714844 -24.761374 54 0 0 0 0
-31.738281 -24.754385 54 0 0 0 0
-30.761719 -24.746542 54 0 0 0 0
-29.785156 -24.74819 54 0 0 0 0
-28.808594 -24.754156 54 0 0 0 0
-27.832031 -24.741934 54 0 0 0 0
-26.855469 -24.72341 54 0 0 0 0
-25.878906 -24.723593 54 0 0 0 0
-24.902344 -24.752844 54 0 0 0 0
-23.925781 -24.746206 54 0 0 0 0
-22.949219 -24.744574 54 0 0 0 0
-21.972656 -24.749502 54 0 0 0 0
-20.996094 -24.764349 54 0 0 0 0
-20.019531 -24.766867 54 0 0 0 0
-19.042969 -24.777624 54 0 0 0 0
-18.066406 -24.800634 54 0 0 0 0
-17.089844 -24.809912 54 0 0 0 0
-16.113281 -24.799459 54 0 0 0 0
-15.136719 -24.809179 54 0 0 0 0
-14.160156 -24.811056 54 0 0 0 0
-13.183594 -24.817099 54 0 0 0 0
-12.207031 -24.832891 54 0 0 0 0
-11.230469 -24.830496 54 0 0 0 0
-10.253906 -24.834173 54 0 0 0 0
-9.2773438 -24.83811 54 0 0 0 0
-8.3007812 -24.837194 54 0 0 0 0
-7.3242188 -24.841284 54 0 0 0 0
-6.3476562 -24.831564 54 0 0 0 0
-5.3710938 -24.837515 54 0 0 0 0
-4.3945312 -24.848471 54 0 0 0 0
-3.4179688 -24.866552 54 0 0 0 0
-2.4414062 -24.863516 54 0 0 0 0
-1.4648438 -24.858358 54 0 0 0 0
-0.48828125 -24.866339 54 0 0 0 0
0.48828125 -24.862295 54 0 0 0 0
1.4648438 -24.870413 54 0 0 0 0
2.4414062 -24.892141 54 0 0 0 0
3.4179688 -24.890326 54 0 0 0 0
4.3945312 -24.864309 54 0 0 0 0
5.3710938 -24.847586 54 0 0 0 0
6.3476562 -24.840979 54 0 0 0 0
7.3242188 -24.852468 54 0 0 0 0
8.3007812 -24.855337 54 0 0 0 0
9.2773438 -24.840109 54 0 0 0 0
10.253906 -24.846853 54 0 0 0 0
11.230469 -24.871832 54 0 0 0 0
12.207031 -24.888128 54 0 0 0 0
13.183594 -24.889898 54 0 0 0 0
14.160156 -24.87348 54 0 0 0 0
15.136719 -24.869848 54 0 0 0 0
16.113281 -24.876348 54 0 0 0 0
17.089844 -24.87438 54 0 0 0 0
18.066406 -24.873312 54 0 0 0 0
19.042969 -24.899649 54 0 0 0 0
20.019531 -24.904531 54 0 0 0 0
20.996094 -24.926184 54 0 0 0 0
21.972656 -24.919104 54 0 0 0 0
22.949219 -24.930578 54 0 0 0 0
23.925781 -24.924139 54 0 0 0 0
24.902344 -24.924902 54 0 0 0 0
25.878906 -24.915899 54 0 0 0 0
26.855469 -24.910711 54 0 0 0 0
27.832031 -24.924276 54 0 0 0 0
28.808594 -24.94245 54 0 0 0 0
29.785156 -24.926397 54 0 0 0 0
30.761719 -24.913824 54 0 0 0 0
31.738281 -24.908957 54 0 0 0 0
32.714844 -24.902884 54 0 0 0 0
33.691406 -24.905249 54 0 0 0 0
34.667969 -24.918371 54 0 0 0 0
35.644531 -24.932989 54 0 0 0 0
36.621094 -24.937155 54 0 0 0 0
37.597656 -24.930868 54 0 0 0 0
38.574219 -24.928717 54 0 0 0 0
39.550781 -24.917624 54 0 0 0 0
40.527344 -24.93154 54 0 0 0 0
41.503906 -24.93154 54 0 0 0 0
42.480469 -24.93717 54 0 0 0 0
43.457031 -24.945639 54 0 0 0 0
44.433594 -24.947653 54 0 0 0 0
45.410156 -24.959112 54 0 0 0 0
46.386719 -24.964483 54 0 0 0 0
47.363281 -24.948187 54 0 0 0 0
48.339844 -24.961355 54 0 0 0 0
49.316406 -24.965673 54 0 0 0 0
50.292969 -24.970648 54 0 0 0 0
51.269531 -24.974173 54 0 0 0 0
52.246094 -24.98078 54 0 0 0 0
53.222656 -24.996634 54 0 0 0 0
54.199219 -25.023657 54 0 0 0 0
55.175781 -25.031607 54 0 0 0 0
56.152344 -25.057837 54 0 0 0 0
57.128906 -25.091131 54 0 0 0 0
58.105469 -25.091909 54 0 0 0 0
59.082031 -24.864553 54 0 0 0 0
59.42453 -24.203344 54 0 0 0 0
-59.92482 -23.226782 54 0 0 0 0
59.519531 -23.226782 54 0 0 0 0
-59.924469 -22.250219 54 0 0 0 0
59.516235 -22.250219 54 0 0 0 0
-59.878204 -21.273657 54 0 0 0 0
59.506805 -21.273657 54 0 0 0 0
-59.853333 -20.297094 54 0 0 0 0
59.494293 -20.297094 54 0 0 0 0
-59.835617 -19.320532 54 0 0 0 0
59.48526 -19.320532 54 0 0 0 0
-59.828812 -18.343969 54 0 0 0 0
59.486481 -18.343969 54 0 0 0 0
-59.802872 -17.367407 54 0 0 0 0
59.483185 -17.367407 54 0 0 0 0
-59.783569 -16.390844 54 0 0 0 0
59.477356 -16.390844 54 0 0 0 0
-59.780151 -15.414281 54 0 0 0 0
59.475891 -15.414281 54 0 0 0 0
-59.764633 -14.437718 54 0 0 0 0
59.477051 -14.437718 54 0 0 0 0
-59.76326 -13.461156 54 0 0 0 0
59.479126 -13.461156 54 0 0 0 0
-59.752686 -12.484593 54 0 0 0 0
59.475891 -12.484593 54 0 0 0 0
-59.740875 -11.508031 54 0 0 0 0
59.479126 -11.508031 54 0 0 0 0
-59.732437 -10.531468 54 0 0 0 0
59.471191 -10.531468 54 0 0 0 0
-59.719666 -9.5549059 54 0 0 0 0
59.48053 -9.5549059 54 0 0 0 0
-59.711456 -8.5783434 54 0 0 0 0
59.476776 -8.5783434 54 0 0 0 0
-59.705536 -7.6017814 54 0 0 0 0
59.477386 -7.6017814 54 0 0 0 0
-59.705536 -6.6252189 54 0 0 0 0
59.479462 -6.6252189 54 0 0 0 0
-59.686829 -5.6486564 54 0 0 0 0
59.477386 -5.6486564 54 0 0 0 0
-59.690292 -4.6720939 54 0 0 0 0
59.478577 -4.6720939 54 0 0 0 0
-59.685425 -3.6955314 54 0 0 0 0
59.482483 -3.6955314 54 0 0 0 0
-59.647598 -2.7189689 54 0 0 0 0
59.479767 -2.7189689 54 0 0 0 0
-59.676926 -1.7424062 54 0 0 0 0
59.48526 -1.7424062 54 0 0 0 0
-59.666519 -0.76584375 54 0 0 0 0
59.489044 -0.76584375 54 0 0 0 0
-59.655228 0.21071875 54 0 0 0 0
59.482666 0.21071875 54 0 0 0 0
-59.644089 1.1872813 54 0 0 0 0
59.483887 1.1872813 54 0 0 0 0
-59.631454 2.1638436 54 0 0 0 0
59.487091 2.1638436 54 0 0 0 0
-59.633179 3.1404061 54 0 0 0 0
59.488068 3.1404061 54 0 0 0 0
-59.615479 4.1169686 54 0 0 0 0
59.488922 4.1169686 54 0 0 0 0
-59.613327 5.0935311 54 0 0 0 0
59.488556 5.0935311 54 0 0 0 0
-59.611496 6.0700936 54 0 0 0 0
59.500336 6.0700936 54 0 0 0 0
-59.602982 7.0466561 54 0 0 0 0
59.496735 7.0466561 54 0 0 0 0
-59.60788 8.0232191 54 0 0 0 0
59.504364 8.0232191 54 0 0 0 0
-59.604187 8.9997816 54 0 0 0 0
59.506958 8.9997816 54 0 0 0 0
-59.60672 9.9763441 54 0 0 0 0
59.516571 9.9763441 54 0 0 0 0
-59.604416 10.952907 54 0 0 0 0
59.524567 10.952907 54 0 0 0 0
-59.603088 11.929469 54 0 0 0 0
59.529633 11.929469 54 0 0 0 0
-59.607117 12.906032 54 0 0 0 0
59.535553 12.906032 54 0 0 0 0
-59.603516 13.882594 54 0 0 0 0
59.539276 13.882594 54 0 0 0 0
-59.605881 14.859157 54 0 0 0 0
59.542206 14.859157 54 0 0 0 0
-59.60083 15.835719 54 0 0 0 0
59.543884 15.835719 54 0 0 0 0
-59.598282 16.812281 54 0 0 0 0
59.544525 16.812281 54 0 0 0 0
-59.59668 17.788843 54 0 0 0 0
59.557373 17.788843 54 0 0 0 0
-59.593414 18.765406 54 0 0 0 0
59.558105 18.765406 54 0 0 0 0
-59.590851 19.741968 54 0 0 0 0
59.563416 19.741968 54 0 0 0 0
-59.593781 20.718531 54 0 0 0 0
59.574158 20.718531 54 0 0 0 0
-59.592224 21.695093 54 0 0 0 0
59.579529 21.695093 54 0 0 0 0
-59.598221 22.671656 54 0 0 0 0
59.585724 22.671656 54 0 0 0 0
-59.597229 23.648218 54 0 0 0 0
59.560913 23.648218 54 0 0 0 0
-59.494064 24.624781 54 0 0 0 0
59.255219 24.624781 54 0 0 0 0
-59.082031 25.140467 54 0 0 0 0
-58.105469 25.28277 54 0 0 0 0
-57.128906 25.262796 54 0 0 0 0
-56.152344 25.238092 54 0 0 0 0
-55.175781 25.212152 54 0 0 0 0
-54.199219 25.194895 54 0 0 0 0
-53.222656 25.176676 54 0 0 0 0
-52.246094 25.161707 54 0 0 0 0
-51.269531 25.146097 54 0 0 0 0
-50.292969 25.136988 54 0 0 0 0
-49.316406 25.123606 54 0 0 0 0
-48.339844 25.110437 54 0 0 0 0
-47.363281 25.101709 54 0 0 0 0
-46.386719 25.090235 54 0 0 0 0
-45.410156 25.082712 54 0 0 0 0
-44.433594 25.078669 54 0 0 0 0
-43.457031 25.071009 54 0 0 0 0
-42.480469 25.063028 54 0 0 0 0
-41.503906 25.055964 54 0 0 0 0
-40.527344 25.051065 54 0 0 0 0
-39.550781 25.045481 54 0 0 0 0
-38.574219 25.039698 54 0 0 0 0
-37.597656 25.034906 54 0 0 0 0
-36.621094 25.028757 54 0 0 0 0
-35.644531 25.021662 54 0 0 0 0
-34.667969 25.013758 54 0 0 0 0
-33.691406 25.009836 54 0 0 0 0
-32.714844 25.00355 54 0 0 0 0
-31.738281 25.002008 54 0 0 0 0
-30.761719 25.000132 54 0 0 0 0
-29.785156 24.994867 54 0 0 0 0
-28.808594 24.990595 54 0 0 0 0
-27.832031 24.988596 54 0 0 0 0
-26.855469 24.982645 54 0 0 0 0
-25.878906 24.980036 54 0 0 0 0
-24.902344 24.978739 54 0 0 0 0
-23.925781 24.970484 54 0 0 0 0
-22.949219 24.964594 54 0 0 0 0
-21.972656 24.966501 54 0 0 0 0
-20.996094 24.961252 54 0 0 0 0
-20.019531 24.95965 54 0 0 0 0
-19.042969 24.954981 54 0 0 0 0
-18.066406 24.949259 54 0 0 0 0
-17.089844 24.948236 54 0 0 0 0
-16.113281 24.943155 54 0 0 0 0
-15.136719 24.944712 54 0 0 0 0
-14.160156 24.940638 54 0 0 0 0
-13.183594 24.937647 54 0 0 0 0
-12.207031 24.932611 54 0 0 0 0
-11.230469 24.931574 54 0 0 0 0
-10.253906 24.929575 54 0 0 0 0
-9.2773438 24.926081 54 0 0 0 0
-8.3007812 24.925608 54 0 0 0 0
-7.3242188 24.924341 54 0 0 0 0
-6.3476562 24.91894 54 0 0 0 0
-5.3710938 24.914469 54 0 0 0 0
-4.3945312 24.911661 54 0 0 0 0
-3.4179688 24.909983 54 0 0 0 0
-2.4414062 24.909113 54 0 0 0 0
-1.4648438 24.907587 54 0 0 0 0
-0.48828125 24.905695 54 0 0 0 0
0.48828125 24.90275 54 0 0 0 0
1.4648438 24.898981 54 0 0 0 0
2.4414062 24.894587 54 0 0 0 0
3.4179688 24.892313 54 0 0 0 0
4.3945312 24.88714 54 0 0 0 0
5.3710938 24.886744 54 0 0 0 0
6.3476562 24.884912 54 0 0 0 0
7.3242188 24.878016 54 0 0 0 0
8.3007812 24.878336 54 0 0 0 0
9.2773438 24.878656 54 0 0 0 0
10.253906 24.875406 54 0 0 0 0
11.230469 24.87179 54 0 0 0 0
12.207031 24.870707 54 0 0 0 0
13.183594 24.863916 54 0 0 0 0
14.160156 24.859964 54 0 0 0 0
15.136719 24.857431 54 0 0 0 0
16.113281 24.859324 54 0 0 0 0
17.089844 24.856073 54 0 0 0 0
18.066406 24.851786 54 0 0 0 0
19.042969 24.853647 54 0 0 0 0
20.019531 24.850138 54 0 0 0 0
20.996094 24.844477 54 0 0 0 0
21.972656 24.842737 54 0 0 0 0
22.949219 24.839121 54 0 0 0 0
23.925781 24.83819 54 0 0 0 0
24.902344 24.834146 54 0 0 0 0
25.878906 24.834452 54 0 0 0 0
26.855469 24.831629 54 0 0 0 0
27.832031 24.83494 54 0 0 0 0
28.808594 24.829401 54 0 0 0 0
29.785156 24.825998 54 0 0 0 0
30.761719 24.826532 54 0 0 0 0
31.738281 24.824015 54 0 0 0 0
32.714844 24.820093 54 0 0 0 0
33.691406 24.824274 54 0 0 0 0
34.667969 24.818979 54 0 0 0 0
35.644531 24.817865 54 0 0 0 0
36.621094 24.815088 54 0 0 0 0
37.597656 24.816751 54 0 0 0 0
38.574219 24.814508 54 0 0 0 0
39.550781 24.814249 54 0 0 0 0
40.527344 24.812265 54 0 0 0 0
41.503906 24.809198 54 0 0 0 0
42.480469 24.810663 54 0 0 0 0
43.457031 24.809015 54 0 0 0 0
44.433594 24.809946 54 0 0 0 0
45.410156 24.812098 54 0 0 0 0
46.386719 24.810984 54 0 0 0 0
47.363281 24.815134 54 0 0 0 0
48.339844 24.816782 54 0 0 0 0
49.316406 24.818995 54 0 0 0 0
50.292969 24.822565 54 0 0 0 0
51.269531 24.82612 54 0 0 0 0
52.246094 24.827723 54 0 0 0 0
53.222656 24.830729 54 0 0 0 0
54.199219 24.838022 54 0 0 0 0
55.175781 24.846476 54 0 0 0 0
56.152344 24.854959 54 0 0 0 0
57.128906 24.867899 54 0 0 0 0
58.105469 24.875696 54 0 0 0 0
59.082031 24.766581 54 0 0 0 0
-59.082031 -24.747427 57 0 0 0 0
-59.564133 -24.203344 57 0 0 0 0
-58.105469 -24.831594 57 0 0 0 0
-57.128906 -24.808493 57 0 0 0 0
-56.152344 -24.777227 57 0 0 0 0
-55.175781 -24.765112 57 0 0 0 0
-54.199219 -24.7665 57 0 0 0 0
-53.222656 -24.760916 57 0 0 0 0
-52.246094 -24.754736 57 0 0 0 0
-51.269531 -24.776983 57 0 0 0 0
-50.292969 -24.771582 57 0 0 0 0
-49.316406 -24.755316 57 0 0 0 0
-48.339844 -24.743704 57 0 0 0 0
-47.363281 -24.741919 57 0 0 0 0
-46.386719 -24.74552 57 0 0 0 0
-45.410156 -24.728933 57 0 0 0 0
-44.433594 -24.737814 57 0 0 0 0
-43.457031 -24.732183 57 0 0 0 0
-42.480469 -24.735128 57 0 0 0 0
-41.503906 -24.732321 57 0 0 0 0
-40.527344 -24.745184 57 0 0 0 0
-39.550781 -24.73937 57 0 0 0 0
-38.574219 -24.744497 57 0 0 0 0
-37.597656 -24.738272 57 0 0 0 0
-36.621094 -24.755041 57 0 0 0 0
-35.644531 -24.747259 57 0 0 0 0
-34.667969 -24.76589 57 0 0 0 0
-33.691406 -24.780844 57 0 0 0 0
-32.714844 -24.766745 57 0 0 0 0
-31.738281 -24.752081 57 0 0 0 0
-30.761719 -24.753225 57 0 0 0 0
-29.785156 -24.759192 57 0 0 0 0
-28.808594 -24.764013 57 0 0 0 0
-27.832031 -24.766165 57 0 0 0 0
-26.855469 -24.766165 57 0 0 0 0
-25.878906 -24.760077 57 0 0 0 0
-24.902344 -24.778158 57 0 0 0 0
-23.925781 -24.761816 57 0 0 0 0
-22.949219 -24.772757 57 0 0 0 0
-21.972656 -24.776342 57 0 0 0 0
-20.996094 -24.772238 57 0 0 0 0
-20.019531 -24.778875 57 0 0 0 0
-19.042969 -24.778326 57 0 0 0 0
-18.066406 -24.789282 57 0 0 0 0
-17.089844 -24.788671 57 0 0 0 0
-16.113281 -24.800802 57 0 0 0 0
-15.136719 -24.835424 57 0 0 0 0
-14.160156 -24.839544 57 0 0 0 0
-13.183594 -24.836706 57 0 0 0 0
-12.207031 -24.83811 57 0 0 0 0
-11.230469 -24.834356 57 0 0 0 0
-10.253906 -24.826422 57 0 0 0 0
-9.2773438 -24.848181 57 0 0 0 0
-8.3007812 -24.864782 57 0 0 0 0
-7.3242188 -24.869741 57 0 0 0 0
-6.3476562 -24.860418 57 0 0 0 0
-5.3710938 -24.869452 57 0 0 0 0
-4.3945312 -24.867529 57 0 0 0 0
-3.4179688 -24.892508 57 0 0 0 0
-2.4414062 -24.886312 57 0 0 0 0
-1.4648438 -24.879187 57 0 0 0 0
-0.48828125 -24.886023 57 0 0 0 0
0.48828125 -24.883337 57 0 0 0 0
1.4648438 -24.882437 57 0 0 0 0
2.4414062 -24.89649 57 0 0 0 0
3.4179688 -24.903982 57 0 0 0 0
4.3945312 -24.879873 57 0 0 0 0
5.3710938 -24.866949 57 0 0 0 0
6.3476562 -24.86025 57 0 0 0 0
7.3242188 -24.859243 57 0 0 0 0
8.3007812 -24.852468 57 0 0 0 0
9.2773438 -24.85343 57 0 0 0 0
10.253906 -24.857244 57 0 0 0 0
11.230469 -24.889013 57 0 0 0 0
12.207031 -24.897451 57 0 0 0 0
13.183594 -24.893209 57 0 0 0 0
14.160156 -24.881674 57 0 0 0 0
15.136719 -24.900885 57 0 0 0 0
16.113281 -24.899221 57 0 0 0 0
17.089844 -24.894232 57 0 0 0 0
18.066406 -24.895559 57 0 0 0 0
19.042969 -24.911215 57 0 0 0 0
20.019531 -24.904531 57 0 0 0 0
20.996094 -24.922613 57 0 0 0 0
21.972656 -24.92124 57 0 0 0 0
22.949219 -24.924765 57 0 0 0 0
23.925781 -24.917761 57 0 0 0 0
24.902344 -24.92565 57 0 0 0 0
25.878906 -24.927145 57 0 0 0 0
26.855469 -24.927893 57 0 0 0 0
27.832031 -24.945181 57 0 0 0 0
28.808594 -24.953421 57 0 0 0 0
29.785156 -24.951345 57 0 0 0 0
30.761719 -24.946692 57 0 0 0 0
31.738281 -24.932928 57 0 0 0 0
32.714844 -24.926626 57 0 0 0 0
33.691406 -24.923941 57 0 0 0 0
34.667969 -24.941442 57 0 0 0 0
35.644531 -24.942205 57 0 0 0 0
36.621094 -24.932241 57 0 0 0 0
37.597656 -24.939993 57 0 0 0 0
38.574219 -24.942129 57 0 0 0 0
39.550781 -24.92539 57 0 0 0 0
40.527344 -24.943411 57 0 0 0 0
41.503906 -24.943411 57 0 0 0 0
42.480469 -24.96102 57 0 0 0 0
43.457031 -24.965399 57 0 0 0 0
44.433594 -24.963202 57 0 0 0 0
45.410156 -24.959478 57 0 0 0 0
46.386719 -24.96102 57 0 0 0 0
47.363281 -24.957083 57 0 0 0 0
48.339844 -24.97402 57 0 0 0 0
49.316406 -24.979589 57 0 0 0 0
50.292969 -24.972006 57 0 0 0 0
51.269531 -24.970068 57 0 0 0 0
52.246094 -24.979162 57 0 0 0 0
53.222656 -24.998159 57 0 0 0 0
54.199219 -25.025427 57 0 0 0 0
55.175781 -25.030294 57 0 0 0 0
56.152344 -25.051702 57 0 0 0 0
57.128906 -25.098989 57 0 0 0 0
58.105469 -25.103262 57 0 0 0 0
59.082031 -24.878119 57 0 0 0 0
59.432831 -24.203344 57 0 0 0 0
-59.908691 -23.226782 57 0 0 0 0
59.523346 -23.226782 57 0 0 0 0
-59.90451 -22.250219 57 0 0 0 0
59.52301 -22.250219 57 0 0 0 0
-59.863281 -21.273657 57 0 0 0 0
59.514771 -21.273657 57 0 0 0 0
-59.847275 -20.297094 57 0 0 0 0
59.505981 -20.297094 57 0 0 0 0
-59.825592 -19.320532 57 0 0 0 0
59.487579 -19.320532 57 0 0 0 0
-59.8069 -18.343969 57 0 0 0 0
59.485779 -18.343969 57 0 0 0 0
-59.792984 -17.367407 57 0 0 0 0
59.484406 -17.367407 57 0 0 0 0
-59.768585 -16.390844 57 0 0 0 0
59.48587 -16.390844 57 0 0 0 0
-59.76326 -15.414281 57 0 0 0 0
59.476471 -15.414281 57 0 0 0 0
-59.748672 -14.437718 57 0 0 0 0
59.483795 -14.437718 57 0 0 0 0
-59.748672 -13.461156 57 0 0 0 0
59.477386 -13.461156 57 0 0 0 0
-59.742081 -12.484593 57 0 0 0 0
59.478851 -12.484593 57 0 0 0 0
-59.725418 -11.508031 57 0 0 0 0
59.480255 -11.508031 57 0 0 0 0
-59.7229 -10.531468 57 0 0 0 0
59.474701 -10.531468 57 0 0 0 0
-59.713043 -9.5549059 57 0 0 0 0
59.482941 -9.5549059 57 0 0 0 0
-59.704163 -8.5783434 57 0 0 0 0
59.477386 -8.5783434 57 0 0 0 0
-59.692154 -7.6017814 57 0 0 0 0
59.476196 -7.6017814 57 0 0 0 0
-59.684982 -6.6252189 57 0 0 0 0
59.486237 -6.6252189 57 0 0 0 0
-59.683411 -5.6486564 57 0 0 0 0
59.475616 -5.6486564 57 0 0 0 0
-59.678925 -4.6720939 57 0 0 0 0
59.482666 -4.6720939 57 0 0 0 0
-59.677811 -3.6955314 57 0 0 0 0
59.480377 -3.6955314 57 0 0 0 0
-59.658188 -2.7189689 57 0 0 0 0
59.479462 -2.7189689 57 0 0 0 0
-59.661469 -1.7424062 57 0 0 0 0
59.485626 -1.7424062 57 0 0 0 0
-59.646942 -0.76584375 57 0 0 0 0
59.489563 -0.76584375 57 0 0 0 0
-59.636292 0.21071875 57 0 0 0 0
59.486237 0.21071875 57 0 0 0 0
-59.630157 1.1872813 57 0 0 0 0
59.489807 1.1872813 57 0 0 0 0
-59.618286 2.1638436 57 0 0 0 0
59.490417 2.1638436 57 0 0 0 0
-59.615326 3.1404061 57 0 0 0 0
59.491882 3.1404061 57 0 0 0 0
-59.60231 4.1169686 57 0 0 0 0
59.487213 4.1169686 57 0 0 0 0
-59.607224 5.0935311 57 0 0 0 0
59.496094 5.0935311 57 0 0 0 0
-59.606079 6.0700936 57 0 0 0 0
59.498871 6.0700936 57 0 0 0 0
-59.599335 7.0466561 57 0 0 0 0
59.496948 7.0466561 57 0 0 0 0
-59.59671 8.0232191 57 0 0 0 0
59.502045 8.0232191 57 0 0 0 0
-59.595581 8.9997816 57 0 0 0 0
59.511597 8.9997816 57 0 0 0 0
-59.594894 9.9763441 57 0 0 0 0
59.515381 9.9763441 57 0 0 0 0
-59.599899 10.952907 57 0 0 0 0
59.526611 10.952907 57 0 0 0 0
-59.598068 11.929469 57 0 0 0 0
59.536255 11.929469 57 0 0 0 0
-59.597794 12.906032 57 0 0 0 0
59.539276 12.906032 57 0 0 0 0
-59.593643 13.882594 57 0 0 0 0
59.54303 13.882594 57 0 0 0 0
-59.600723 14.859157 57 0 0 0 0
59.549927 14.859157 57 0 0 0 0
-59.591049 15.835719 57 0 0 0 0
59.547577 15.835719 57 0 0 0 0
-59.583847 16.812281 57 0 0 0 0
59.549805 16.812281 57 0 0 0 0
-59.590027 17.788843 57 0 0 0 0
59.554321 17.788843 57 0 0 0 0
-59.584442 18.765406 57 0 0 0 0
59.561951 18.765406 57 0 0 0 0
-59.586716 19.741968 57 0 0 0 0
59.568787 19.741968 57 0 0 0 0
-59.583588 20.718531 57 0 0 0 0
59.573395 20.718531 57 0 0 0 0
-59.583511 21.695093 57 0 0 0 0
59.586395 21.695093 57 0 0 0 0
-59.585022 22.671656 57 0 0 0 0
59.595764 22.671656 57 0 0 0 0
-59.586456 23.648218 57 0 0 0 0
59.568756 23.648218 57 0 0 0 0
-59.472656 24.624781 57 0 0 0 0
59.247498 24.624781 57 0 0 0 0
-59.082031 25.120234 57 0 0 0 0
-58.105469 25.265833 57 0 0 0 0
-57.128906 25.247065 57 0 0 0 0
-56.152344 25.223383 57 0 0 0 0
-55.175781 25.203882 57 0 0 0 0
-54.199219 25.181025 57 0 0 0 0
-53.222656 25.163385 57 0 0 0 0
-52.246094 25.147745 57 0 0 0 0
-51.269531 25.132517 57 0 0 0 0
-50.292969 25.120981 57 0 0 0 0
-49.316406 25.111322 57 0 0 0 0
-48.339844 25.097589 57 0 0 0 0
-47.363281 25.086267 57 0 0 0 0
-46.386719 25.078424 57 0 0 0 0
-45.410156 25.067881 57 0 0 0 0
-44.433594 25.06225 57 0 0 0 0
-43.457031 25.060892 57 0 0 0 0
-42.480469 25.048853 57 0 0 0 0
-41.503906 25.042582 57 0 0 0 0
-40.527344 25.036325 57 0 0 0 0
-39.550781 25.033655 57 0 0 0 0
-38.574219 25.027094 57 0 0 0 0
-37.597656 25.02276 57 0 0 0 0
-36.621094 25.015741 57 0 0 0 0
-35.644531 25.011133 57 0 0 0 0
-34.667969 25.004282 57 0 0 0 0
-33.691406 24.999125 57 0 0 0 0
-32.714844 24.995264 57 0 0 0 0
-31.738281 24.990183 57 0 0 0 0
-30.761719 24.985758 57 0 0 0 0
-29.785156 24.980478 57 0 0 0 0
-28.808594 24.976664 57 0 0 0 0
-27.832031 24.975962 57 0 0 0 0
-26.855469 24.970743 57 0 0 0 0
-25.878906 24.967051 57 0 0 0 0
-24.902344 24.96142 57 0 0 0 0
-23.925781 24.957636 57 0 0 0 0
-22.949219 24.951883 57 0 0 0 0
-21.972656 24.952402 57 0 0 0 0
-20.996094 24.947718 57 0 0 0 0
-20.019531 24.946695 57 0 0 0 0
-19.042969 24.945169 57 0 0 0 0
-18.066406 24.940104 57 0 0 0 0
-17.089844 24.936487 57 0 0 0 0
-16.113281 24.937098 57 0 0 0 0
-15.136719 24.931482 57 0 0 0 0
-14.160156 24.924448 57 0 0 0 0
-13.183594 24.925608 57 0 0 0 0
-12.207031 24.923044 57 0 0 0 0
-11.230469 24.920481 57 0 0 0 0
-10.253906 24.919565 57 0 0 0 0
-9.2773438 24.913248 57 0 0 0 0
-8.3007812 24.909616 57 0 0 0 0
-7.3242188 24.911661 57 0 0 0 0
-6.3476562 24.906992 57 0 0 0 0
-5.3710938 24.902292 57 0 0 0 0
-4.3945312 24.904444 57 0 0 0 0
-3.4179688 24.899118 57 0 0 0 0
-2.4414062 24.894892 57 0 0 0 0
-1.4648438 24.891245 57 0 0 0 0
-0.48828125 24.893122 57 0 0 0 0
0.48828125 24.886576 57 0 0 0 0
1.4648438 24.885096 57 0 0 0 0
2.4414062 24.882151 57 0 0 0 0
3.4179688 24.878839 57 0 0 0 0
4.3945312 24.878016 57 0 0 0 0
5.3710938 24.877588 57 0 0 0 0
6.3476562 24.874369 57 0 0 0 0
7.3242188 24.871088 57 0 0 0 0
8.3007812 24.868555 57 0 0 0 0
9.2773438 24.867838 57 0 0 0 0
10.253906 24.864588 57 0 0 0 0
11.230469 24.858866 57 0 0 0 0
12.207031 24.856745 57 0 0 0 0
13.183594 24.857492 57 0 0 0 0
14.160156 24.852884 57 0 0 0 0
15.136719 24.852549 57 0 0 0 0
16.113281 24.846079 57 0 0 0 0
17.089844 24.844004 57 0 0 0 0
18.066406 24.838633 57 0 0 0 0
19.042969 24.839121 57 0 0 0 0
20.019531 24.838495 57 0 0 0 0
20.996094 24.833948 57 0 0 0 0
21.972656 24.832743 57 0 0 0 0
22.949219 24.832148 57 0 0 0 0
23.925781 24.828226 57 0 0 0 0
24.902344 24.82876 57 0 0 0 0
25.878906 24.827112 57 0 0 0 0
26.855469 24.82374 57 0 0 0 0
27.832031 24.82345 57 0 0 0 0
28.808594 24.823999 57 0 0 0 0
29.785156 24.817575 57 0 0 0 0
30.761719 24.815638 57 0 0 0 0
31.738281 24.81814 57 0 0 0 0
32.714844 24.815638 57 0 0 0 0
33.691406 24.808939 57 0 0 0 0
34.667969 24.810068 57 0 0 0 0
35.644531 24.812632 57 0 0 0 0
36.621094 24.815393 57 0 0 0 0
37.597656 24.807535 57 0 0 0 0
38.574219 24.806498 57 0 0 0 0
39.550781 24.807108 57 0 0 0 0
40.527344 24.806849 57 0 0 0 0
41.503906 24.805109 57 0 0 0 0
42.480469 24.80398 57 0 0 0 0
43.457031 24.806238 57 0 0 0 0
44.433594 24.806589 57 0 0 0 0
45.410156 24.803217 57 0 0 0 0
46.386719 24.804087 57 0 0 0 0
47.363281 24.808237 57 0 0 0 0
48.339844 24.810724 57 0 0 0 0
49.316406 24.813211 57 0 0 0 0
50.292969 24.815424 57 0 0 0 0
51.269531 24.821741 57 0 0 0 0
52.246094 24.821726 57 0 0 0 0
53.222656 24.827723 57 0 0 0 0
54.199219 24.8323 57 0 0 0 0
55.175781 24.840738 57 0 0 0 0
56.152344 24.842554 57 0 0 0 0
57.128906 24.854639 57 0 0 0 0
58.105469 24.861109 57 0 0 0 0
59.082031 24.758677 57 0 0 0 0
-59.082031 -24.753775 60 0 0 0 0
-59.553574 -24.203344 60 0 0 0 0
-58.105469 -24.836966 60 0 0 0 0
-57.128906 -24.806036 60 0 0 0 0
-56.152344 -24.782873 60 0 0 0 0
-55.175781 -24.775702 60 0 0 0 0
-54.199219 -24.774603 60 0 0 0 0
-53.222656 -24.77059 60 0 0 0 0
-52.246094 -24.764212 60 0 0 0 0
-51.269531 -24.792715 60 0 0 0 0
-50.292969 -24.778387 60 0 0 0 0
-49.316406 -24.762838 60 0 0 0 0
-48.339844 -24.753286 60 0 0 0 0
-47.363281 -24.738363 60 0 0 0 0
-46.386719 -24.738989 60 0 0 0 0
-45.410156 -24.733938 60 0 0 0 0
-44.433594 -24.749166 60 0 0 0 0
-43.457031 -24.765203 60 0 0 0 0
-42.480469 -24.757605 60 0 0 0 0
-41.503906 -24.752661 60 0 0 0 0
-40.527344 -24.772177 60 0 0 0 0
-39.550781 -24.776831 60 0 0 0 0
-38.574219 -24.762274 60 0 0 0 0
-37.597656 -24.756933 60 0 0 0 0
-36.621094 -24.755041 60 0 0 0 0
-35.644531 -24.75559 60 0 0 0 0
-34.667969 -24.770376 60 0 0 0 0
-33.691406 -24.774832 60 0 0 0 0
-32.714844 -24.773001 60 0 0 0 0
-31.738281 -24.754232 60 0 0 0 0
-30.761719 -24.755041 60 0 0 0 0
-29.785156 -24.755041 60 0 0 0 0
-28.808594 -24.761831 60 0 0 0 0
-27.832031 -24.751318 60 0 0 0 0
-26.855469 -24.755178 60 0 0 0 0
-25.878906 -24.758276 60 0 0 0 0
-24.902344 -24.779974 60 0 0 0 0
-23.925781 -24.763571 60 0 0 0 0
-22.949219 -24.760946 60 0 0 0 0
-21.972656 -24.774023 60 0 0 0 0
-20.996094 -24.776541 60 0 0 0 0
-20.019531 -24.772512 60 0 0 0 0
-19.042969 -24.776022 60 0 0 0 0
-18.066406 -24.788061 60 0 0 0 0
-17.089844 -24.791113 60 0 0 0 0
-16.113281 -24.797781 60 0 0 0 0
-15.136719 -24.81719 60 0 0 0 0
-14.160156 -24.819799 60 0 0 0 0
-13.183594 -24.838888 60 0 0 0 0
-12.207031 -24.844122 60 0 0 0 0
-11.230469 -24.849279 60 0 0 0 0
-10.253906 -24.851309 60 0 0 0 0
-9.2773438 -24.864691 60 0 0 0 0
-8.3007812 -24.869741 60 0 0 0 0
-7.3242188 -24.87377 60 0 0 0 0
-6.3476562 -24.861273 60 0 0 0 0
-5.3710938 -24.865377 60 0 0 0 0
-4.3945312 -24.867529 60 0 0 0 0
-3.4179688 -24.885717 60 0 0 0 0
-2.4414062 -24.882025 60 0 0 0 0
-1.4648438 -24.888494 60 0 0 0 0
-0.48828125 -24.889074 60 0 0 0 0
0.48828125 -24.892859 60 0 0 0 0
1.4648438 -24.884161 60 0 0 0 0
2.4414062 -24.903982 60 0 0 0 0
3.4179688 -24.908804 60 0 0 0 0
4.3945312 -24.8962 60 0 0 0 0
5.3710938 -24.885763 60 0 0 0 0
6.3476562 -24.879644 60 0 0 0 0
7.3242188 -24.872732 60 0 0 0 0
8.3007812 -24.865911 60 0 0 0 0
9.2773438 -24.858175 60 0 0 0 0
10.253906 -24.848822 60 0 0 0 0
11.230469 -24.87763 60 0 0 0 0
12.207031 -24.900457 60 0 0 0 0
13.183594 -24.902578 60 0 0 0 0
14.160156 -24.894232 60 0 0 0 0
15.136719 -24.911428 60 0 0 0 0
16.113281 -24.928366 60 0 0 0 0
17.089844 -24.929129 60 0 0 0 0
18.066406 -24.928457 60 0 0 0 0
19.042969 -24.946127 60 0 0 0 0
20.019531 -24.940924 60 0 0 0 0
20.996094 -24.950842 60 0 0 0 0
21.972656 -24.938711 60 0 0 0 0
22.949219 -24.937231 60 0 0 0 0
23.925781 -24.937948 60 0 0 0 0
24.902344 -24.939428 60 0 0 0 0
25.878906 -24.939383 60 0 0 0 0
26.855469 -24.939383 60 0 0 0 0
27.832031 -24.952536 60 0 0 0 0
28.808594 -24.959585 60 0 0 0 0
29.785156 -24.954092 60 0 0 0 0
30.761719 -24.954779 60 0 0 0 0
31.738281 -24.940802 60 0 0 0 0
32.714844 -24.942907 60 0 0 0 0
33.691406 -24.945761 60 0 0 0 0
34.667969 -24.959387 60 0 0 0 0
35.644531 -24.949286 60 0 0 0 0
36.621094 -24.950628 60 0 0 0 0
37.597656 -24.954977 60 0 0 0 0
38.574219 -24.954977 60 0 0 0 0
39.550781 -24.945639 60 0 0 0 0
40.527344 -24.967978 60 0 0 0 0
41.503906 -24.954763 60 0 0 0 0
42.480469 -24.960394 60 0 0 0 0
43.457031 -24.967611 60 0 0 0 0
44.433594 -24.973867 60 0 0 0 0
45.410156 -24.968832 60 0 0 0 0
46.386719 -24.973867 60 0 0 0 0
47.363281 -24.973867 60 0 0 0 0
48.339844 -25.001822 60 0 0 0 0
49.316406 -25.007574 60 0 0 0 0
50.292969 -24.988531 60 0 0 0 0
51.269531 -24.988485 60 0 0 0 0
52.246094 -25.004126 60 0 0 0 0
53.222656 -25.013922 60 0 0 0 0
54.199219 -25.022223 60 0 0 0 0
55.175781 -25.013113 60 0 0 0 0
56.152344 -25.048239 60 0 0 0 0
57.128906 -25.082251 60 0 0 0 0
58.105469 -25.080603 60 0 0 0 0
59.082031 -24.886938 60 0 0 0 0
59.452209 -24.203344 60 0 0 0 0
-59.903717 -23.226782 60 0 0 0 0
59.533447 -23.226782 60 0 0 0 0
-59.890717 -22.250219 60 0 0 0 0
59.523773 -22.250219 60 0 0 0 0
-59.847885 -21.273657 60 0 0 0 0
59.526062 -21.273657 60 0 0 0 0
-59.842255 -20.297094 60 0 0 0 0
59.515564 -20.297094 60 0 0 0 0
-59.809464 -19.320532 60 0 0 0 0
59.502686 -19.320532 60 0 0 0 0
-59.798172 -18.343969 60 0 0 0 0
59.499298 -18.343969 60 0 0 0 0
-59.770325 -17.367407 60 0 0 0 0
59.495087 -17.367407 60 0 0 0 0
-59.762909 -16.390844 60 0 0 0 0
59.496094 -16.390844 60 0 0 0 0
-59.7491 -15.414281 60 0 0 0 0
59.487091 -15.414281 60 0 0 0 0
-59.740112 -14.437718 60 0 0 0 0
59.49823 -14.437718 60 0 0 0 0
-59.740112 -13.461156 60 0 0 0 0
59.491425 -13.461156 60 0 0 0 0
-59.719162 -12.484593 60 0 0 0 0
59.483093 -12.484593 60 0 0 0 0
-59.723663 -11.508031 60 0 0 0 0
59.488678 -11.508031 60 0 0 0 0
-59.708755 -10.531468 60 0 0 0 0
59.489807 -10.531468 60 0 0 0 0
-59.697723 -9.5549059 60 0 0 0 0
59.487213 -9.5549059 60 0 0 0 0
-59.690536 -8.5783434 60 0 0 0 0
59.49054 -8.5783434 60 0 0 0 0
-59.684128 -7.6017814 60 0 0 0 0
59.488678 -7.6017814 60 0 0 0 0
-59.684128 -6.6252189 60 0 0 0 0
59.494568 -6.6252189 60 0 0 0 0
-59.673721 -5.6486564 60 0 0 0 0
59.494781 -5.6486564 60 0 0 0 0
-59.661865 -4.6720939 60 0 0 0 0
59.492432 -4.6720939 60 0 0 0 0
-59.65892 -3.6955314 60 0 0 0 0
59.487427 -3.6955314 60 0 0 0 0
-59.645432 -2.7189689 60 0 0 0 0
59.487946 -2.7189689 60 0 0 0 0
-59.648788 -1.7424062 60 0 0 0 0
59.495483 -1.7424062 60 0 0 0 0
-59.647415 -0.76584375 60 0 0 0 0
59.504456 -0.76584375 60 0 0 0 0
-59.636337 0.21071875 60 0 0 0 0
59.496277 0.21071875 60 0 0 0 0
-59.622482 1.1872813 60 0 0 0 0
59.501617 1.1872813 60 0 0 0 0
-59.615158 2.1638436 60 0 0 0 0
59.496918 2.1638436 60 0 0 0 0
-59.603867 3.1404061 60 0 0 0 0
59.500763 3.1404061 60 0 0 0 0
-59.59874 4.1169686 60 0 0 0 0
59.503571 4.1169686 60 0 0 0 0
-59.600113 5.0935311 60 0 0 0 0
59.50592 5.0935311 60 0 0 0 0
-59.589188 6.0700936 60 0 0 0 0
59.509735 6.0700936 60 0 0 0 0
-59.589066 7.0466561 60 0 0 0 0
59.511536 7.0466561 60 0 0 0 0
-59.592941 8.0232191 60 0 0 0 0
59.518402 8.0232191 60 0 0 0 0
-59.587372 8.9997816 60 0 0 0 0
59.52005 8.9997816 60 0 0 0 0
-59.593719 9.9763441 60 0 0 0 0
59.532288 9.9763441 60 0 0 0 0
-59.58815 10.952907 60 0 0 0 0
59.538483 10.952907 60 0 0 0 0
-59.585648 11.929469 60 0 0 0 0
59.542755 11.929469 60 0 0 0 0
-59.591187 12.906032 60 0 0 0 0
59.553528 12.906032 60 0 0 0 0
-59.589401 13.882594 60 0 0 0 0
59.551147 13.882594 60 0 0 0 0
-59.587753 14.859157 60 0 0 0 0
59.55658 14.859157 60 0 0 0 0
-59.584442 15.835719 60 0 0 0 0
59.560333 15.835719 60 0 0 0 0
-59.57811 16.812281 60 0 0 0 0
59.563416 16.812281 60 0 0 0 0
-59.582794 17.788843 60 0 0 0 0
