ply
format ascii 1.0
comment PCL generated
element vertex 516
property float x
property float y
property float z
property float nx
property float ny
property float nz
property float curvature
element camera 1
property float view_px
property float view_py
property float view_pz
property float x_axisx
property float x_axisy
property float x_axisz
property float y_axisx
property float y_axisy
property float y_axisz
property float z_axisx
property float z_axisy
property float z_axisz
property float focal
property float scalex
property float scaley
property float centerx
property float centery
property int viewportx
property int viewporty
property float k1
property float k2
end_header
27.832031 -24.203344 -87.01899 -0.009399022 0.055320233 -0.22550866 0.23238508
27.832031 -24.206732 -87 -0.0097853579 0.043569207 -0.20096381 0.20586522
27.669281 -24.203344 -87 -0.015119741 0.049305886 -0.21292116 0.21907784
30.761719 -24.203344 -87.036583 0.004565238 0.061420023 -0.25325602 0.26063743
30.761719 -24.210394 -87 0.010118827 0.049355417 -0.22985171 0.23530863
30.517578 -24.203344 -87 -0.0058009 0.056142718 -0.24296603 0.24943565
32.714844 -24.203344 -87.017647 -0.040830202 -0.50507027 0.27848151 0.57819986
32.714844 -24.206808 -87 -0.045939453 -0.50414908 0.27631289 0.57673699
32.85434 -24.203344 -87 -0.048412103 -0.49873051 0.26537961 0.56701165
34.667969 -24.203344 -87.017647 0.023084212 0.045288891 -0.20665161 0.21281178
34.667969 -24.206686 -87 0.019684028 0.045745015 -0.20800233 0.2138809
34.528473 -24.203344 -87 0.016943265 0.053652376 -0.22469252 0.23162983
-0.48828125 25.601343 -87.00721 0.49931893 -0.43029633 0.25464609 0.70662504
43.457031 25.601343 -87.008194 -0.0012196817 0.058068544 0.23386979 0.24097411
58.105469 25.601343 -87.039474 -0.10305872 0.073990017 0.17518517 0.21629949
58.127167 25.601343 -87 -0.10330743 0.068024009 0.16011727 0.2023295
-0.48828125 25.602732 -87 0.49931893 -0.43029633 0.25464609 0.70662504
43.457031 25.602716 -87 -0.0012196817 0.058068544 0.23386979 0.24097411
58.105469 25.608164 -87 -0.096360959 0.066282034 0.16508573 0.20231669
37.597656 -24.200018 -84 0.0009207048 -0.052199185 -0.22531544 0.23128478
-0.48828125 25.601343 -86.8125 0.49913853 -0.4368698 0.2431954 0.70649737
-0.48828125 25.554697 -84 -0.0013583937 -0.49945995 0.4768075 0.69051248
43.457031 25.601343 -86.8125 -0.0054078172 0.046109498 0.20965247 0.2147312
-3.3249664 25.601343 -81 -0.0048345849 -0.60253876 0.36216342 0.70302111
-3.4179688 25.612558 -81 -0.0082266033 -0.6036247 0.36439678 0.70513511
43.674042 34.390408 -81 0.096407548 0.18889755 -0.24797557 0.32629523
45.410156 34.390408 -81.06897 -0.057790443 0.10719252 -0.093417257 0.15348211
45.410156 34.333126 -81 -0.04552383 0.10207456 -0.088904947 0.14281361
45.615753 34.390408 -81 -0.039703377 0.10196593 -0.08794421 0.14038374
43.457031 34.464382 -81 0.087043062 0.1899471 -0.2472256 0.32369259
-43.457031 36.343533 -81.058823 0.50784558 -0.54117203 -0.28411388 0.79466659
-43.457031 36.204021 -81 0.48365378 -0.54634136 -0.29096669 0.78553897
-43.313919 36.343533 -81 0.51888955 -0.52380705 -0.28700417 0.79119629
-42.480469 37.206738 -81 0.71051055 -0.24025586 -0.42259705 0.86089277
-42.480469 37.320095 -81.045189 0.71189541 -0.24243692 -0.4212617 0.86199307
-42.426453 37.320095 -81 0.7109338 -0.24107824 -0.42214793 0.86125171
-48.339844 38.296658 -81.085716 -0.22464688 0.45203802 -0.45065686 0.67668027
-48.450317 38.296658 -81 -0.23299457 0.45944715 -0.44695535 0.68201703
-42.480469 38.296658 -81.06221 0.23321882 0.45094782 -0.43954849 0.67152649
-42.403702 38.296658 -81 0.2335566 0.45513946 -0.4398168 0.67464018
-48.339844 39.27322 -81.052025 0.12059663 -0.060684573 -0.098555088 0.16715044
-48.397522 39.27322 -81 0.26589024 -0.034981444 -0.47087049 0.54188591
-48.339844 39.410122 -81 0.2679854 -0.029149666 -0.47118735 0.54284751
41.503906 40.113201 -81 0.10064082 -0.15784891 -0.17345846 0.25521106
41.606171 40.249783 -81 0.098765194 -0.15726723 -0.17299923 0.25380361
47.363281 40.249783 -81.082382 0.526384 0.34191439 -0.7514233 0.97909272
47.448517 40.249783 -81 0.53379118 0.34331167 -0.74743664 0.98053938
-46.42128 41.226345 -81 0.36202556 0.46061784 -0.4548485 0.7416997
-46.386719 41.226345 -81.014053 0.36202556 0.46061784 -0.4548485 0.7416997
-44.433594 41.226345 -81.045189 0.12169284 0.61321229 -0.18616351 0.6523
-44.304047 41.226345 -81 0.12635982 0.61536539 -0.18458423 0.65476155
46.164337 41.226345 -81 0.30535102 0.57467628 -0.70997453 0.96309704
46.386719 41.11404 -81 0.3235203 0.56037706 -0.71065867 0.96110541
47.363281 40.342052 -81 0.52534336 0.35414535 -0.7486313 0.98074126
-46.386719 41.240154 -81 0.36202556 0.46061784 -0.4548485 0.7416997
-44.433594 41.271679 -81 0.12366362 0.6154303 -0.18493411 0.65440643
43.38504 15.835719 -78 0.0016095936 0.076055065 -0.069158405 0.10280976
0.48828125 16.574091 -78 0.67844141 -0.28416505 -0.6078425 0.9542039
0.48828125 16.812281 -78.09288 0.68069315 -0.22508231 -0.63140738 0.95534313
0.53569031 16.812281 -78 0.70724809 -0.21300662 -0.61922032 0.96384931
-3.4179688 25.601343 -80.962204 -0.0082266033 -0.6036247 0.36439678 0.70513511
39.550781 25.597925 -78 0.23662695 -0.42673668 0.60910314 0.78045058
39.555267 25.601343 -78 0.23662695 -0.42673668 0.60910314 0.78045058
56.98941 25.601343 -78 -0.19287625 0.033493161 -0.0074206116 0.1959033
57.180298 25.601343 -78 -0.19287625 0.033493161 -0.0074206116 0.1959033
-49.408264 26.577906 -78 0.20960346 0.23335408 -0.032196313 0.31531626
-41.503906 26.577906 -78.038605 0.26558995 -0.39525554 0.19704059 0.51535422
-41.487823 26.577906 -78 0.26558995 -0.39525554 0.19704059 0.51535422
40.527344 26.435083 -78 0.13904825 0.13047796 -0.015508354 0.19130975
40.615692 26.577906 -78 0.1391387 0.12962914 -0.017477885 0.19096798
57.128906 25.602671 -78 -0.19287625 0.033493161 -0.0074206116 0.1959033
-41.503906 26.622583 -78 0.26558995 -0.39525554 0.19704059 0.51535422
48.339844 27.554468 -78.18232 0.18633384 -0.208739 0.043199793 0.28312275
48.426331 27.554468 -78 0.17137194 -0.20591475 0.028569937 0.2694169
41.503906 28.531031 -78.108902 -0.056542754 -0.10603553 -0.070738345 0.13944365
41.421417 28.531031 -78 -0.059613347 -0.099688172 -0.060856819 0.13112985
48.339844 27.758692 -78 0.15974149 -0.19653974 0.02992925 0.25503132
-46.597137 29.507593 -78 -0.0018549114 -0.2186577 -0.19059256 0.29006922
-46.386719 29.507593 -78.140289 0.03211689 -0.23251092 -0.20787311 0.31353477
-44.562378 29.507593 -78 0.20628771 0.56575394 -0.76406813 0.97284746
-44.433594 29.48382 -78 0.22353078 0.55911511 -0.76183164 0.9710629
41.503906 28.572672 -78 -0.058794469 -0.10380074 -0.065936506 0.13630484
-46.386719 29.591303 -78 0.050640054 -0.20495181 -0.20158896 0.2919037
-44.433594 32.437283 -78.024536 -0.10484218 0.24577853 -0.33899343 0.43164283
-44.433594 32.424114 -78 -0.10484218 0.24577853 -0.33899343 0.43164283
-44.388626 32.437283 -78 -0.10484218 0.24577853 -0.33899343 0.43164283
47.363281 32.437283 -78.209763 0.10837358 0.18474528 -0.10529791 0.23866986
47.363281 32.354702 -78 0.1066266 0.18991846 -0.11114378 0.24452238
47.503418 32.437283 -78 0.099170625 0.172828 -0.10715608 0.2262449
43.457031 34.390408 -80.819275 0.078213811 0.19092529 -0.2463202 0.32131529
50.292969 35.332623 -78 0.16390492 0.15181383 0.042869657 0.22748642
50.292969 35.36697 -78.056938 0.16356362 0.15200733 0.041971952 0.2272024
50.314026 35.36697 -78 0.16390492 0.15181383 0.042869657 0.22748642
-45.410156 35.391567 -78 -0.026111661 -0.10982427 0.10086957 0.15138645
-43.457031 36.343533 -80.865433 0.5057857 -0.52459079 -0.29216331 0.78509498
-42.480469 37.320095 -80.879257 0.70508766 -0.23539871 -0.4266949 0.85710543
-48.339844 38.296658 -80.796196 -0.23185921 0.46445757 -0.4480049 0.6857025
-42.480469 38.296658 -80.82692 0.23360269 0.46246248 -0.44047785 0.68004596
-48.339844 39.27322 -80.747192 0.23282716 -0.12078964 -0.54178661 0.60193968
41.484589 39.27322 -78 0.033134669 -0.13335888 -0.24525255 0.28112507
41.503906 39.27322 -78.161537 0.059607178 -0.10247006 -0.26376098 0.2891764
-51.269531 40.249783 -78.034882 -0.0048006177 0.10745172 -0.40836957 0.42229685
-51.282532 40.249783 -78 -0.0065572858 0.10877327 -0.40321851 0.41768384
41.503906 40.249783 -80.850372 0.098765194 -0.15726723 -0.17299923 0.25380361
41.503906 39.290844 -78 0.042809099 -0.12838177 -0.25579292 0.28938645
-51.269531 40.275219 -78 -0.0065572858 0.10877327 -0.40321851 0.41768384
46.386719 41.226345 -80.858315 0.32394266 0.56874812 -0.7070812 0.96352327
41.503906 43.17947 -78.241501 0.034802049 -0.031418025 -0.10059844 0.11098793
42.480469 18.765406 -75.025314 0.31369895 0.11196887 -0.032012474 0.3346175
42.473358 18.765406 -75 0.34035948 0.13711035 -0.049664162 0.37028414
42.480469 18.77096 -75 0.34035948 0.13711035 -0.049664162 0.37028414
5.3710938 25.598124 -75 0.59805924 -0.63910055 -0.079342976 0.87887406
5.3710938 25.601343 -75.063828 0.59805924 -0.63910055 -0.079342976 0.87887406
5.3871002 25.601343 -75 0.59989619 -0.63860559 -0.077706516 0.87961972
39.550781 25.601343 -77.957748 0.23662695 -0.42673668 0.60910314 0.78045058
57.128906 25.601343 -77.769226 -0.19287625 0.033493161 -0.0074206116 0.1959033
40.527344 26.577906 -77.771606 0.12440133 0.13364255 0.015611157 0.18324773
-44.433594 29.507593 -77.941559 0.21118228 0.57099146 -0.76046431 0.97413301
-47.250595 31.460718 -75 -0.34258789 -0.36631909 0.50905609 0.71462876
39.550781 33.413845 -75.157257 -0.13248372 0.11972886 0.017549314 0.17942941
39.550781 33.379848 -75 -0.13457587 0.12249008 0.018148188 0.18287657
39.517761 33.413845 -75 -0.1416626 0.13244241 0.023972686 0.1954072
-47.371979 36.343533 -75 -0.008813709 0.42315298 -0.047121063 0.42585975
-47.363281 36.343533 -75.042618 -0.081825167 0.35245484 0.065010414 0.36762226
-47.363281 36.370968 -75 0.67599636 -0.21894118 0.042541157 0.71183991
-44.433594 40.249783 -75.282722 0.29069278 -0.16759685 -0.11224659 0.35382241
-44.360352 40.249783 -75 0.2693828 0.42375994 -0.499955 0.70858634
-44.433594 40.311031 -75 0.21587901 0.48190242 -0.4945623 0.7234816
42.480469 18.765406 -74.979797 0.34233901 0.14007688 -0.057090759 0.37426844
-49.316406 26.502253 -72 -0.1028977 -0.069355458 -0.015472785 0.12505008
-49.316406 26.577906 -72.12291 -0.1028977 -0.069355458 -0.015472785 0.12505008
-49.250092 26.577906 -72 -0.10337934 -0.069570065 -0.015580297 0.12557878
-41.503906 26.577906 -72.230774 0.12122771 -0.089502007 -0.016612545 0.15160061
-41.62384 26.577906 -72 0.12163155 -0.089671433 -0.016731799 0.15203668
-41.503906 26.44343 -72 0.12122771 -0.089502007 -0.016612545 0.15160061
41.49527 27.554468 -72 0.23758045 0.098650306 -0.044831634 0.26112494
41.503906 27.569727 -72 0.23758045 0.098650306 -0.044831634 0.26112494
42.454071 28.531031 -72 0.25433066 0.25687912 -0.35525787 0.50683242
42.480469 28.541574 -72 0.25433066 0.25687912 -0.35525787 0.50683242
-46.443329 32.437283 -72 0.1577024 0.62900889 -0.26447129 0.70033371
-46.386719 32.423 -72 0.17143629 0.62162334 -0.26422504 0.69686502
-44.433594 32.437283 -72.062935 -0.12488556 0.67511857 -0.47032234 0.83221668
-44.616699 32.437283 -72 -0.11581953 0.65383196 -0.47979099 0.81921291
42.455353 32.437283 -72 0.24397899 0.58838856 -0.63657641 0.90053117
42.480469 32.426022 -72 0.24348752 0.58916265 -0.63660109 0.90092164
-44.433594 32.458111 -72 -0.10050461 0.66178131 -0.47979096 0.82356244
39.550781 33.413845 -74.880737 -0.13934493 0.13246459 0.049572535 0.198548
-47.363281 36.343533 -74.959457 0.05875963 0.53694618 -0.030363688 0.54100448
-39.550781 36.326748 -72 -0.43324858 0.58885252 0.018097445 0.73128599
-39.542786 36.343533 -72 -0.43324858 0.58885252 0.018097445 0.73128599
-44.433594 40.249783 -74.717278 0.2691862 -0.16103044 0.098148122 0.32867166
-39.634018 40.249783 -72 0.0012520254 0.084763944 -0.063980073 0.10620708
-39.550781 40.05534 -72 0.00024825335 0.095661938 -0.066319987 0.11640279
42.480469 43.29034 -72 -0.030721679 0.052514821 -0.10231598 0.1190386
41.503906 27.554468 -71.985947 0.23758045 0.098650306 -0.044831634 0.26112494
42.480469 28.531031 -71.975494 0.24484694 0.25985414 -0.36384049 0.50975889
-46.386719 32.437283 -71.971764 0.17685676 0.62368029 -0.26218659 0.69928336
42.480469 32.437283 -71.972031 0.24348752 0.58916265 -0.63660109 0.90092164
-47.363281 36.25053 -69 0.52304679 0.53322875 -0.36330849 0.83060455
-47.460129 36.343533 -69 0.52490836 0.53322381 -0.36256114 0.83144873
-47.363281 36.343533 -69.09549 0.52476078 0.53382629 -0.36236471 0.83165652
-39.550781 36.343533 -71.978973 -0.43324858 0.58885252 0.018097445 0.73128599
42.480469 37.320095 -69.043579 0.61158615 0.029630087 -0.14296842 0.62877303
42.480469 37.183834 -69 0.59998041 0.11901269 -0.15031296 0.62986863
42.442902 37.320095 -69 0.60520816 0.042954553 -0.14474827 0.62375802
-42.480469 38.296658 -69.044113 -0.22857499 0.48833022 -0.66639674 0.8572033
-42.45517 38.296658 -69 -0.22951426 0.49374843 -0.66537338 0.85975927
42.480469 37.586437 -69 0.60462588 0.0012145266 -0.13506463 0.61952919
-48.44075 39.27322 -69 -0.099425912 0.11396891 -0.10219657 0.18253374
-42.43663 39.27322 -69 0.25880021 0.078210935 -0.47745469 0.54868704
46.521423 39.27322 -69 0.023865074 0.13223308 -0.060727745 0.14745504
50.292969 39.27322 -71.836487 0.028147817 0.059422441 -0.081509739 0.10472423
-48.339844 39.499203 -69 -0.096249729 0.1056639 -0.099584639 0.17420094
-42.480469 39.371777 -69 0.14765531 0.10995167 -0.1521568 0.23883709
46.386719 39.410763 -69 0.042404771 0.1133119 -0.063716114 0.13673878
-46.386719 41.189022 -69 -0.0077034384 0.14717841 -0.10111815 0.17873363
-46.386719 41.226345 -69.041473 -0.0032261945 0.14524384 -0.099668682 0.17618181
-46.191406 41.226345 -69 -0.014126591 0.1462905 -0.1014927 0.17860918
-47.363281 36.343533 -68.958237 0.52633935 0.53420603 -0.3615599 0.83254719
42.480469 37.320095 -68.978973 0.60343921 0.036892168 -0.14617902 0.62198728
46.386719 37.320095 -68.904327 -0.21727347 0.55552834 -0.44562417 0.74458075
-42.480469 38.296658 -68.982452 -0.22658588 0.48664191 -0.66757107 0.85662866
-48.339844 39.27322 -68.904327 -0.10115267 0.11650375 -0.1033558 0.18570785
-42.480469 39.27322 -68.96167 0.14755711 0.11551759 -0.15286165 0.24183486
46.386719 39.27322 -68.93103 0.039008245 0.12600628 -0.065371335 0.14721629
29.785156 14.756572 -48 -0.15361694 0.057993054 -0.14374323 0.21822803
-28.903717 22.671656 -48 0.027057111 -0.10300019 0.062321723 0.12339013
-28.808594 22.937998 -48 0.025102377 -0.11438848 0.067414403 0.13512792
31.738281 14.859157 -45.060482 0.15264803 0.35773456 -0.037048392 0.39070198
-27.832031 16.723505 -45 0.032475978 0.12103133 -0.053437132 0.13623069
-27.832031 16.812281 -45.090565 0.033090085 0.12650436 -0.037626337 0.13606633
-27.807541 16.812281 -45 0.028558016 0.11061145 -0.052950706 0.12591359
-28.808594 22.671656 -47.940868 0.036708713 -0.098781154 0.068897754 0.12590531
-27.832031 16.812281 -44.919998 0.030032247 0.11150083 -0.062460255 0.13128462
-30.820908 17.788843 -42 0.50436866 0.25892329 -0.76506615 0.95223695
-30.761719 17.559061 -42 0.49325901 0.27624309 -0.7615304 0.94844252
-26.855469 24.624781 -42.110294 0.035438031 0.036911577 0.11765549 0.12830095
-26.896851 24.624781 -42 0.0495781 0.046392232 0.13846436 0.15421611
33.691406 24.558832 -42 -0.11043546 -0.05483979 0.00042266399 0.12330276
33.793945 24.624781 -42 -0.11043546 -0.05483979 0.00042266399 0.12330276
-26.855469 24.632776 -42 0.035689101 0.041293979 0.1298137 0.14082082
-30.761719 17.788843 -41.92638 0.50396746 0.2550981 -0.76648903 0.9521364
33.691406 24.624781 -41.750988 -0.12337084 -0.060732931 -0.0065789446 0.13766675
-58.170578 25.601343 -24 0.23828705 -0.43932906 0.48553494 0.69680339
-57.910156 25.601343 -24 0.20187478 -0.45719019 0.48504421 0.69645113
-58.105469 25.605417 -24 0.20187478 -0.45719019 0.48504421 0.69645113
-43.457031 35.36697 -6.0588226 -0.063816488 0.083675459 -0.070238024 0.12652077
-43.457031 35.29948 -6 -0.061287716 0.083927557 -0.069576979 0.12506388
-43.35762 35.36697 -6 -0.059792727 0.083541319 -0.068965256 0.12373573
-42.480469 36.194561 -6 -0.083978802 0.12181322 -0.095378906 0.1760342
-42.480469 36.343533 -6.0923615 -0.069944561 0.14776602 -0.092859507 0.18801576
-42.371521 36.343533 -6 -0.066590503 0.15213621 -0.091750532 0.18973108
60.058594 0.19591773 -3 -0.57310289 -0.043789428 0.62649637 0.85021299
60.058594 0.21071875 -3.0213776 -0.57310289 -0.043789428 0.62649637 0.85021299
60.084747 0.21071875 -3 -0.57310289 -0.043789428 0.62649637 0.85021299
60.058594 0.22892249 -3 -0.57310289 -0.043789428 0.62649637 0.85021299
-44.596359 15.835719 -3 0.12866992 -0.21324897 0.1219629 0.27731934
43.488525 15.835719 -3 -0.061362803 -0.11349669 0.085953951 0.15503217
-44.433594 16.03776 -3 0.20756295 -0.17144203 0.14590654 0.30620822
43.457031 16.048014 -3 -0.076180816 -0.084697202 0.089733124 0.14501436
-44.433594 17.788843 -3.2178802 0.21313742 -0.016050041 0.13290381 0.25169146
-44.275894 17.788843 -3 0.14491586 0.0085980892 0.12848857 0.19386554
-44.433594 17.950571 -3 0.25309855 -0.034632057 0.12475896 0.28429395
-41.503906 27.554468 -3.0890427 0.13346189 -0.15084602 0.027859047 0.20332912
-41.460648 27.554468 -3 0.13346189 -0.15084602 0.027859047 0.20332912
-42.480469 28.531031 -3.2076111 -0.12888792 0.18578245 0.12488395 0.25830838
-42.301285 28.531031 -3 -0.1161443 0.19728506 0.14730716 0.27223206
-41.503906 27.641123 -3 0.1322006 -0.14833508 0.030101478 0.20096366
-42.480469 28.610315 -3 -0.12946984 0.22129445 0.15046942 0.29727885
-42.480469 32.437283 -3.0245056 0.61354017 0.085028768 -0.38049856 0.7269392
-42.480469 32.427258 -3 0.61354017 0.085028768 -0.38049856 0.7269392
-42.464035 32.437283 -3 0.60137093 0.076758862 -0.38328078 0.71724689
-39.550781 35.322689 -3 0.86509931 -0.25857562 -0.38456872 0.9814027
-39.550781 35.36697 -3.0691223 0.86541742 -0.2518461 -0.38867185 0.98154956
-39.52327 35.36697 -3 0.86541742 -0.2518461 -0.38867185 0.98154956
-47.308731 38.296658 -3 0.043282717 0.26556247 -0.071048379 0.27828887
-47.363281 38.430431 -3 0.035834372 0.24824199 -0.068729311 0.26006135
-42.480469 43.17947 -3.0950699 0.095555037 -0.023447722 0.06252189 0.11657421
-42.409973 43.17947 -3 0.08393915 -0.02186805 0.055877522 0.10318086
-42.480469 43.218761 -3 0.093346521 -0.023273319 0.061111525 0.11397298
-60.058594 3.130549 0 -0.092108518 0.44669029 -0.0019270665 0.45609197
-60.058594 3.1404061 -0.10713959 -0.092108518 0.44669029 -0.0019270665 0.45609197
-60.055878 3.1404061 0 -0.092108518 0.44669029 -0.0019270665 0.45609197
-44.433594 15.835719 -2.9775314 0.17732017 -0.19609323 0.13994431 0.2991311
43.457031 15.835719 -2.9761887 -0.061362803 -0.11349669 0.085953951 0.15503217
42.480469 21.695093 -0.140625 -0.24849717 0.32253659 0.10104017 0.41951138
42.446808 21.695093 0 -0.23544119 0.316154 0.14511557 0.42005292
42.433044 22.671656 0 -0.38709894 0.21076247 0.1284377 0.45908892
1.5491791 25.601343 0 0.23043188 -0.143879 0.10176672 0.29009736
1.4648438 25.690119 0 0.23043188 -0.143879 0.10176672 0.29009736
-40.527344 27.554468 -0.12307739 0.12294123 -0.32738161 -0.025356177 0.35062259
-40.498901 27.554468 0 0.12127888 -0.32487741 -0.032482192 0.34829441
-49.316406 28.531031 -0.090911865 -0.67472512 0.66141009 0.011856911 0.9449116
-49.338242 28.531031 0 -0.67563498 0.65872848 0.019865256 0.94382226
-40.527344 27.635294 0 0.12294123 -0.32738161 -0.025356177 0.35062259
-49.316406 28.55015 0 -0.67563498 0.65872848 0.019865256 0.94382226
-47.363281 38.296658 -2.9294128 0.04507342 0.26069987 -0.073877633 0.27468881
-51.269531 40.249783 -0.1608963 0.038183928 0.12212739 0.071931712 0.14678992
-60.058594 1.3293253 3 -0.015659094 0.12754267 -0.049167849 0.13758568
-60.058594 3.1404061 0.069770813 -0.092108518 0.44669029 -0.0019270665 0.45609197
42.480469 21.695093 0.10650635 -0.21385555 0.29274851 0.18468124 0.40686983
1.4648438 25.601343 0.27669525 0.23043188 -0.143879 0.10176672 0.29009736
-48.407471 27.554468 3 -0.13517906 -0.13601752 -0.018777221 0.19268297
-40.527344 27.554468 0.10572815 0.12031054 -0.32301491 -0.039520904 0.34695125
-49.316406 28.531031 0.074623108 -0.67091095 0.66727018 0.02978152 0.94670904
-48.339844 27.684168 3 -0.13056028 -0.13348208 -0.017721564 0.18755667
-47.554352 28.531031 3 0.10681805 0.21007663 -0.16660015 0.28861377
-47.363281 28.609507 3 0.093618423 0.21121486 -0.17756279 0.29138404
-47.363281 32.536144 3 -0.0059968084 0.20334095 0.22695653 0.30478317
-41.503906 33.302486 3 0.034010351 -0.038926512 -0.096600831 0.10956138
-41.3741 33.413845 3 0.031541288 -0.040739417 -0.096391648 0.10929731
-40.527344 34.253735 3 0.03760165 -0.032517016 -0.097087264 0.10907419
-40.417236 34.390408 3 0.031122297 -0.048281908 -0.10401645 0.11882408
-50.292969 35.26199 3 0.056857347 0.05215618 0.13453881 0.15509261
-50.356308 35.36697 3 0.045169473 0.058463469 0.12482248 0.14504796
-47.363281 39.27322 2.9559479 0.52749562 0.081343099 -0.71198809 0.88982886
-47.319885 39.27322 3 0.52724183 0.080998361 -0.71198398 0.88964367
-47.363281 39.331356 3 0.52724183 0.080998361 -0.71198398 0.88964367
-47.363281 41.179287 3 0.67857957 -0.48700199 -0.2967464 0.886397
-47.363281 41.226345 2.9680862 0.67857957 -0.48700199 -0.2967464 0.886397
-47.329758 41.226345 3 0.67652225 -0.48910242 -0.29626474 0.88581955
-48.339844 27.554468 3.115387 -0.12615055 -0.12999611 -0.017988294 0.18203442
-47.363281 28.531031 3.1849289 0.085954189 0.19225816 -0.17102875 0.27129716
-41.503906 33.413845 3.2131119 0.049824655 -0.038364947 -0.10966355 0.12641384
-40.527344 34.390408 3.2252426 0.03141883 -0.057885557 -0.11254129 0.13039717
-50.292969 35.36697 3.1472626 0.060730398 0.058833227 0.14274181 0.16590586
-47.411316 37.320095 6 -0.082654133 -0.098611183 -0.055858552 0.14027134
-47.363281 37.199703 6 -0.081131324 -0.09735579 -0.055223674 0.13823926
-47.374252 38.296658 6 0.19728483 0.014773659 0.038151056 0.20148218
-42.480469 38.030315 6 -0.053161517 -0.087377936 0.026099503 0.10555679
-42.465973 38.296658 6 0.16545087 -0.10184723 -0.10873684 0.22264445
-47.363281 38.321072 6 0.19214086 0.0054846779 0.038219899 0.19598202
-47.363281 41.226345 3.0531006 0.67424434 -0.48061755 -0.30483094 0.88233811
-47.363281 37.320095 6.0314331 -0.082654133 -0.098611183 -0.055858552 0.14027134
-47.363281 38.296658 6.0070419 0.19728483 0.014773659 0.038151056 0.20148218
-42.480469 38.296658 6.0105515 0.16957018 -0.11106278 -0.10851684 0.22992367
27.832031 24.624781 38.781815 0.070346817 0.0030022264 -0.075183094 0.10300575
27.832031 24.585184 39 0.070346817 0.0030022264 -0.075183094 0.10300575
-28.895935 22.671656 42 0.040046662 -0.075717136 0.070122778 0.1106979
-28.808594 22.79101 42 0.021937668 -0.10304075 0.076625466 0.13026941
27.852905 23.648218 42 -0.21742882 0.092383623 -0.099007271 0.25614929
-31.738281 23.740412 42 -0.030513912 0.072904527 -0.10620236 0.13238244
27.832031 23.655634 42 -0.20448777 0.08440274 -0.097019814 0.24156141
-28.808594 22.671656 42.043945 0.02925247 -0.08385852 0.067362607 0.11147053
27.832031 23.648218 42.042374 -0.20448777 0.08440274 -0.097019814 0.24156141
32.714844 23.552164 45 0.63925409 -0.74194628 0.17487109 0.99484169
32.811432 23.648218 45 0.64554077 -0.73566574 0.18530548 0.99612504
-29.785156 23.511713 48 0.28683594 -0.66394895 0.64175189 0.96692735
-29.642517 23.648218 48 0.29616252 -0.6711961 0.6316812 0.96811032
30.705902 23.648218 48 -0.13831773 0.3880454 0.21664694 0.46545348
30.761719 23.648218 47.992676 -0.13761504 0.38858134 0.21703944 0.46587494
32.714844 23.648218 45.275513 0.62588096 -0.7487216 0.19254839 0.99467874
-25.878906 24.58024 48 -0.11394003 -0.051840961 0.0025885776 0.1252059
-25.808075 24.624781 48 -0.11786436 -0.056391716 -0.011562258 0.13117057
30.761719 23.651407 48 -0.13761504 0.38858134 0.21703944 0.46587494
-29.785156 23.648218 48.118546 0.29294184 -0.65825725 0.64799285 0.96902645
-25.878906 24.624781 48.175735 -0.12332933 -0.056558102 -0.0051909164 0.13577881
44.650604 33.413845 69 0.042403586 0.16032144 -0.15784323 0.22894435
-45.410156 34.390408 68.968567 0.0091830529 0.26957625 -0.4857226 0.5555917
-45.410156 34.357861 69 0.0091830529 0.26957625 -0.4857226 0.5555917
-45.601227 34.390408 69 -0.003853526 0.26529133 -0.48236448 0.5505178
-44.677734 34.390408 69 -0.025347708 0.25837234 -0.3334949 0.4226318
42.480469 34.390408 68.972031 0.19143602 0.14143685 -0.44703752 0.50645304
42.480469 34.362499 69 0.19143602 0.14143685 -0.44703752 0.50645304
42.449463 34.390408 69 0.19143602 0.14143685 -0.44703752 0.50645304
44.433594 33.443661 69 0.020896535 0.15463987 -0.15262625 0.21827717
-47.363281 35.36697 68.978973 0.17750791 -0.14847745 -0.79735792 0.83026153
-47.363281 35.33424 69 0.1791968 -0.15120593 -0.79710335 0.83087212
-47.393478 35.36697 69 0.17750791 -0.14847745 -0.79735792 0.83026153
-44.433594 34.422955 69 -0.0054812916 0.26001579 -0.33262494 0.42222932
41.503906 38.296658 68.914291 0.15282124 -0.079670593 -0.16553119 0.23896089
41.43396 38.296658 69 0.15282124 -0.079670593 -0.16553119 0.23896089
49.316406 38.296658 68.958237 0.63980263 0.19077185 -0.71053779 0.97498989
49.344574 38.296658 69 0.63980263 0.19077185 -0.71053779 0.97498989
41.503906 38.520641 69 0.15387642 -0.064433873 -0.16426992 0.23412451
49.316406 38.379772 69 0.64093411 0.19300938 -0.70970374 0.97556573
42.480469 40.05447 69 0.05221884 -0.15311804 -0.14164275 0.21502236
45.321381 41.226345 69 0.018298745 0.5744853 -0.80451733 0.98874485
45.410156 41.226345 68.989456 0.030461209 0.57521272 -0.80423331 0.98923647
45.483398 41.226345 69 0.042949088 0.57427001 -0.80446482 0.98934036
45.410156 41.2337 69 0.030461209 0.57521272 -0.80423331 0.98923647
-1.4648438 16.812281 71.962143 -0.66296202 -0.015378498 0.067132592 0.66652977
-1.4808502 16.812281 72 -0.6637243 -0.017098367 0.068349749 0.66745335
-1.4648438 16.721445 72 -0.6637243 -0.017098367 0.068349749 0.66745335
-1.4326477 22.671656 72 0.015798509 -0.092215583 0.054628342 0.10834002
-1.4648438 22.720087 72 0.037884355 -0.11005519 0.052172631 0.12755138
49.316406 25.601343 71.943787 0.17701882 -0.24041043 -0.03246516 0.30031121
49.3396 25.601343 72 0.16873896 -0.23711054 -0.037671655 0.29345083
49.316406 25.690866 72 0.17701882 -0.24041043 -0.03246516 0.30031121
41.503906 27.554468 71.788116 -0.027519226 -0.071080446 -0.068989843 0.10280728
41.395966 27.554468 72 -0.047081828 -0.080764979 -0.050862521 0.10642686
-47.363281 28.500711 72 -0.47568619 0.67786914 -0.43154991 0.93381971
-47.293533 28.531031 72 -0.48046675 0.66339082 -0.43640345 0.92810756
-42.615616 28.531031 72 -0.10078846 0.23240708 0.20964545 0.32881999
-42.480469 28.465784 72 -0.075911328 0.21621354 0.2219094 0.31898999
41.503906 27.646708 72 -0.043743551 -0.090798318 -0.068137273 0.12165739
43.457031 28.452082 72 -0.39038342 0.64156759 -0.5213151 0.91420877
46.386719 28.531031 71.845581 0.009195745 0.13498572 0.12219563 0.18231148
46.548828 28.531031 72 -0.0031817257 0.14428329 0.11915246 0.18714993
46.386719 28.650614 72 0.026582941 0.12289801 0.12594351 0.17796725
-41.63681 32.437283 72 0.094827831 0.15603958 -0.082299531 0.2002845
49.295837 32.437283 72 0.6586141 -0.69890696 -0.19408469 0.97975117
-49.316406 33.413845 71.91156 -0.094090492 0.075784892 0.0031852871 0.12085742
-49.316406 33.373013 72 -0.094090492 0.075784892 0.0031852871 0.12085742
-49.355789 33.413845 72 -0.094090492 0.075784892 0.0031852871 0.12085742
-41.503906 32.537777 72 0.094290674 0.13342997 -0.060262829 0.17414333
44.433594 33.413845 69.046509 0.019322071 0.15359506 -0.15181097 0.21682101
49.316406 32.456722 72 0.6586141 -0.69890696 -0.19408469 0.97975117
-44.433594 34.390408 69.095749 -0.0041761398 0.25890547 -0.33191898 0.4209747
39.5961 34.390408 72 -0.053636491 0.085497916 -0.0086365044 0.10129835
42.480469 34.390408 69.18898 0.17698346 0.1511171 -0.4459818 0.50304997
-47.363281 35.36697 69.062943 0.1791968 -0.15120593 -0.79710335 0.83087212
39.550781 34.458935 72 -0.05486539 0.087519616 -0.0082185119 0.10362161
-42.480469 39.27322 71.729736 -0.023757398 0.2042685 0.2862404 0.35245368
-42.436081 39.27322 72 -0.090574831 0.25965804 0.24184662 0.36621836
51.269531 39.27322 71.791016 -0.03077814 0.11922069 0.018704683 0.12454209
51.346649 39.27322 72 -0.038067698 0.12511955 0.001186952 0.13078785
-42.480469 40.249783 69.192856 0.45280403 0.44473869 -0.74228102 0.97662944
-42.480469 39.297451 72 -0.08188343 0.24531071 0.24568978 0.35671517
41.503906 42.196926 72 0.13350961 0.32395545 -0.43957594 0.56213784
41.511414 42.202908 72 0.13350961 0.32395545 -0.43957594 0.56213784
-47.363281 43.17947 71.770493 0.039764717 -0.048591435 -0.11894582 0.13450082
43.351379 43.17947 72 0.39266768 -0.83076441 0.37922865 0.99406832
43.457031 43.17947 71.86972 0.38971049 -0.83047682 0.38185209 0.99366844
47.363281 43.17947 71.989319 0.34486163 -0.42321029 0.21639113 0.58724922
47.37146 43.17947 72 0.34486163 -0.42321029 0.21639113 0.58724922
-47.363281 43.273754 72 0.033809274 -0.033249259 -0.094297364 0.10554892
43.457031 43.2272 72 0.38404155 -0.83769363 0.37074113 0.99331141
47.363281 43.183376 72 0.34486163 -0.42321029 0.21639113 0.58724922
47.363281 15.725856 75 0.037479252 0.13800302 -0.07669007 0.16226797
47.363281 15.835719 74.888428 0.037479252 0.13800302 -0.07669007 0.16226797
47.391022 15.835719 75 0.037479252 0.13800302 -0.07669007 0.16226797
-47.363281 17.788843 74.8125 -0.07433942 -0.10125975 0.12534948 0.17746092
-2.4414062 17.788843 74.887497 -0.487894 0.45616528 0.085837141 0.67342061
-2.4684448 17.788843 75 -0.48535913 0.46672699 0.10493597 0.68148303
-47.363281 17.882349 75 0.043151289 0.10952336 0.034135975 0.12256698
-43.457031 18.765406 74.918182 -0.18985368 0.037766457 -0.017196575 0.19433592
-43.429001 18.765406 75 -0.19112465 0.038740993 -0.026674313 0.19682737
-2.4414062 18.765406 74.862503 -0.48969284 0.49178731 0.061608937 0.69674206
-2.4738617 18.765406 75 -0.48578328 0.4882395 0.085372068 0.69401127
-43.457031 18.778696 75 -0.19112465 0.038740993 -0.026674313 0.19682737
-2.4414062 19.741968 74.98761 0.0030677319 -0.025528923 0.14094187 0.14326809
-2.4443512 19.741968 75 0.0030677319 -0.025528923 0.14094187 0.14326809
-2.4414062 19.830744 75 0.0030677319 -0.025528923 0.14094187 0.14326809
-1.4648438 22.671656 72.028259 0.037884355 -0.11005519 0.052172631 0.12755138
5.3710938 24.624781 74.765625 -0.080717042 -0.044439197 0.060699508 0.11033817
-48.448349 28.531031 75 -0.6150865 0.70456403 0.090767995 0.9396705
-47.363281 28.531031 72.106598 -0.48195368 0.67805755 -0.42567247 0.93447226
-42.480469 28.531031 72.231339 -0.087174609 0.22499973 0.21764135 0.32494929
-48.339844 28.572992 75 -0.62008095 0.69532341 0.094274722 0.93640953
43.457031 30.484156 74.983398 -0.34087056 0.13420409 -0.00079098897 0.36633879
43.452087 30.484156 75 -0.35167027 0.14493412 0.016008126 0.38070217
-47.363281 31.460718 74.987045 -0.4636766 -0.1867962 0.51054329 0.71452314
-47.363281 31.456354 75 -0.4636766 -0.1867962 0.51054329 0.71452314
-47.367996 31.460718 75 -0.4636766 -0.1867962 0.51054329 0.71452314
-42.480469 31.431376 75 -0.45371345 0.70990145 0.0092460243 0.84255648
-42.480469 31.460718 74.912323 -0.45024425 0.71525931 0.036555223 0.84596223
-42.443817 31.460718 75 -0.45457873 0.70788389 0.011936571 0.8413583
-41.503906 32.437283 72.23233 0.12126112 0.15144193 -0.03158617 0.19656196
40.527344 32.437283 74.87471 -0.41358685 0.21908325 0.0056303027 0.46806329
40.527344 32.414059 75 -0.41221607 0.21882385 0.031904474 0.4677861
40.50354 32.437283 75 -0.41597041 0.22416636 0.029739821 0.47346216
49.316406 32.437283 72.055939 0.65940034 -0.69846165 -0.19363877 0.97987419
39.550781 34.390408 72.143143 -0.054830492 0.083882093 -0.0036598146 0.10027952
49.316406 34.390408 74.749252 -0.81580389 0.54288244 0.03781515 0.98065656
-51.269531 35.36697 74.760666 -0.029793888 0.044654831 0.086571969 0.10186479
-51.269531 35.286053 75 0.042599261 -0.13463074 0.017928161 0.14234307
-51.319946 35.36697 75 0.037285626 -0.12320073 0.017734069 0.12993512
43.457031 38.202847 75 0.22192217 -0.4872109 0.37207636 0.65196985
43.382446 38.296658 75 -0.082143605 0.021019399 -0.087079532 0.12154107
43.552948 38.296658 75 0.14910935 -0.51864886 0.37828004 0.65903419
49.412415 38.296658 75 -0.094235718 0.40491319 0.098723382 0.42729542
-43.457031 39.045361 75 -0.10363851 -0.48679325 0.45213142 0.67240721
-43.559067 39.27322 75 -0.13916537 -0.47915095 0.46763691 0.68383986
-43.292709 39.27322 75 0.051280681 -0.48335958 0.61719137 0.78561527
44.405884 39.27322 75 -0.35563403 0.23227561 0.22770174 0.48194981
44.433594 39.27322 74.888885 -0.37076133 0.18122238 0.10448398 0.42570227
49.316406 38.42004 75 -0.073654234 0.46944439 0.096270487 0.4848412
44.433594 39.300442 75 -0.34436038 0.28714249 0.29344094 0.53585672
41.503906 42.202908 72.021576 0.13097125 0.32679927 -0.43143615 0.5568558
48.339844 43.258053 75 0.10590929 -0.095364511 0.077226415 0.16209592
47.363281 15.835719 75.083084 0.040446579 0.13133471 -0.10485761 0.17285788
-47.363281 17.788843 75.167175 -0.83511877 0.48918283 0.20168737 0.9886359
-2.4414062 17.788843 75.086823 -0.48232478 0.46580222 0.11901236 0.6810087
-43.457031 18.765406 75.064514 -0.20128733 0.043847352 -0.03752562 0.2093976
-2.4414062 18.765406 75.105438 -0.48300859 0.48833734 0.099190272 0.69398081
-2.4414062 19.741968 75.009583 0.0030677319 -0.025528923 0.14094187 0.14326809
-0.63851929 23.648218 78 0.16148195 -0.051105797 0.044761717 0.17519085
-0.48828125 23.52894 78 0.17654315 -0.06269303 0.034432948 0.19048235
5.3710938 24.624781 75.202698 -0.075289577 -0.043044537 -0.05656644 0.10354282
-48.360901 26.577906 78 0.7097404 -0.42246246 -0.38496792 0.91126627
-48.339844 26.743174 78 0.73224258 -0.41106859 -0.37899518 0.92130011
-48.339844 28.531031 75.218536 -0.61705393 0.69535357 0.13528329 0.9394539
-46.56163 28.531031 78 0.056053385 0.18877925 -0.13945463 0.24130309
-43.447769 28.531031 78 0.15480931 0.16197906 -0.41689333 0.47328976
-46.386719 28.590616 78 0.05229646 0.19616836 -0.14511257 0.24954879
-43.457031 28.534357 78 0.15480931 0.16197906 -0.41689333 0.47328976
43.457031 30.484156 75.011215 -0.34177753 0.1354546 0.017169885 0.3680416
-47.363281 31.460718 75.010849 -0.4636766 -0.1867962 0.51054329 0.71452314
-42.480469 31.460718 75.072296 -0.44600612 0.72599715 -0.0019652206 0.85205466
40.527344 32.437283 75.076706 -0.41080052 0.2175481 0.038260598 0.46642053
48.339844 32.377758 78 0.033155084 -0.099085867 -0.15586919 0.18764986
48.426697 32.437283 78 0.034281135 -0.08412537 -0.14429733 0.17051098
43.434723 34.390408 78 0.1025041 0.67933184 -0.45533836 0.82421595
43.457031 34.378277 78 0.087652072 0.67894769 -0.45857915 0.82398278
43.457031 34.390408 77.925003 0.091552004 0.68952399 -0.45354038 0.83037579
47.119141 34.390408 78 -0.29256311 0.68167186 -0.18150462 0.76368427
49.316406 34.390408 75.230774 -0.087452024 -0.12569593 0.022131689 0.15471631
47.363281 34.435268 78 -0.29581988 0.67474926 -0.18370385 0.75930434
49.316406 38.296658 75.267548 -0.092526048 0.41266221 0.10444224 0.43561378
44.433594 39.27322 75.064178 0.14722653 0.59130812 -0.46902791 0.7689656
-50.373474 40.249783 78 -0.021224707 -0.087486476 0.044541359 0.10044055
40.403046 40.249783 78 -0.039918572 0.087726057 -0.14084269 0.17066346
50.37149 40.249783 78 -0.0060262978 0.13968317 -0.12713602 0.18897428
50.292969 40.361446 78 -0.002189219 0.13547185 -0.1302689 0.18795584
42.480469 42.187725 78 0.057289243 0.15653601 -0.40534633 0.43828216
42.480469 42.202908 77.967972 0.051688343 0.14741862 -0.40009066 0.42950723
42.504791 42.202908 78 0.051688343 0.14741862 -0.40009066 0.42950723
48.339844 42.202908 77.825424 0.087681934 0.0025367439 -0.085780963 0.12269038
48.200348 42.202908 78 0.093411669 0.0022495687 -0.089371398 0.1292983
48.339844 42.114971 78 0.079993799 0.012258261 -0.089468673 0.12063961
-0.48828125 23.648218 78.155838 0.16976136 -0.04926455 0.050055534 0.18371575
-48.339844 26.577906 78.038773 0.7097404 -0.42246246 -0.38496792 0.91126627
-46.386719 28.531031 78.126175 0.042078078 0.2002051 -0.15212482 0.25494042
-43.457031 28.531031 78.007248 0.15480931 0.16197906 -0.41689333 0.47328976
48.339844 32.437283 78.125137 0.046117574 -0.064786196 -0.13577712 0.15735154
47.363281 34.390408 78.101044 -0.28404391 0.67702949 -0.1889732 0.75812978
46.386719 36.343533 80.962601 0.19538069 0.1338385 -0.10554987 0.25928196
46.386719 36.292675 81 -0.071512289 0.30618465 0.00012767315 0.31442496
46.44931 36.343533 81 0.20707616 0.14077985 -0.10754937 0.27251858
-47.363281 37.320095 80.971558 0.22540167 0.4938435 -0.66747582 0.86035532
-47.382339 37.320095 81 0.22540167 0.4938435 -0.66747582 0.86035532
-42.480469 37.320095 80.880508 -0.20155026 0.55778342 -0.45391473 0.74684906
-42.381241 37.320095 81 -0.20893449 0.55689013 -0.45067716 0.74625069
46.386719 36.630764 81 0.038290635 0.13329309 0.0059495568 0.13881145
-47.363281 38.296658 80.968002 0.5590623 -0.043214332 -0.10020709 0.56961358
-47.382339 38.296658 81 0.55640948 -0.051256012 -0.10056359 0.56774265
46.386719 38.101345 81 0.36598754 -0.19979788 -0.57638437 0.71139652
46.416016 38.296658 81 0.36551285 -0.18759681 -0.58097911 0.71156794
-47.363281 38.366405 81 0.55442894 -0.055548705 -0.10093901 0.56627357
-42.480469 39.27322 80.75676 0.21768412 0.18114769 -0.47628608 0.5541203
-42.455429 39.27322 81 0.21460266 0.187601 -0.47664109 0.55536938
46.386719 38.325665 81 0.36839917 -0.18528609 -0.58256793 0.71374667
-50.292969 40.249783 78.200882 -0.0053927898 -0.090029016 0.075969979 0.11792262
-42.480469 39.305416 81 0.2157822 0.18745689 -0.47709212 0.5561645
50.292969 40.249783 78.182327 0.0047104955 0.14983687 -0.14629555 0.20946519
45.410156 36.343533 81.089035 0.48219442 0.17803626 -0.47549233 0.70021516
46.386719 36.343533 81.017548 0.19814472 0.13775364 -0.10542399 0.26334694
-47.363281 37.320095 81.014053 0.21718131 0.49926084 -0.67095828 0.86406833
-42.480469 37.320095 81.065598 -0.20345771 0.54933929 -0.45406014 0.74117428
-47.363281 38.296658 81.014053 0.55682248 -0.051573556 -0.1003429 0.56813711
46.386719 38.296658 81.010544 0.36792946 -0.18886898 -0.5811252 0.71326721
-42.480469 39.27322 81.021027 0.2157822 0.18745689 -0.47709212 0.5561645
59.111298 24.624781 87 -0.43685162 0.13513497 -0.21154079 0.50383556
59.082031 24.643457 87 -0.43685162 0.13513497 -0.21154079 0.50383556
59.082031 24.624781 87.058914 -0.43685162 0.13513497 -0.21154079 0.50383556
0 0 0 1 0 0 0 1 0 0 0 1 0 0 0 0 0 516 1 0 0
